1.273678955078125000e+03 1.273654296875000000e+03 1.273619995117187500e+03 1.273589233398437500e+03 1.273568847656250000e+03 1.273559082031250000e+03 1.273556396484375000e+03 1.273557617187500000e+03 1.273557128906250000e+03 1.273556152343750000e+03 1.273557373046875000e+03 1.273564819335937500e+03 1.273582763671875000e+03 1.273612548828125000e+03 1.273652465820312500e+03 1.273699584960937500e+03 1.273783935546875000e+03 1.273860229492187500e+03 1.273927001953125000e+03 1.273988647460937500e+03 1.274050415039062500e+03 1.274117797851562500e+03 1.274193969726562500e+03 1.274279052734375000e+03 1.274370849609375000e+03 1.274464111328125000e+03 1.274558349609375000e+03 1.274688232421875000e+03 1.274829956054687500e+03 1.274938720703125000e+03 1.275000122070312500e+03 1.275067138671875000e+03 1.275140136718750000e+03 1.275219726562500000e+03 1.275304931640625000e+03 1.275394287109375000e+03 1.275486694335937500e+03 1.275580810546875000e+03 1.275676391601562500e+03 1.275772460937500000e+03 1.275868408203125000e+03 1.275963378906250000e+03 1.276055908203125000e+03 1.276145507812500000e+03 1.276231079101562500e+03 1.276313476562500000e+03 1.276391601562500000e+03 1.276464233398437500e+03 1.276532470703125000e+03 1.276595336914062500e+03 1.276653808593750000e+03 1.276707519531250000e+03 1.276757324218750000e+03 1.276803710937500000e+03 1.276846679687500000e+03 1.276887451171875000e+03 1.276927124023437500e+03 1.276965332031250000e+03 1.277003417968750000e+03 1.277042114257812500e+03 1.277078979492187500e+03 1.277114868164062500e+03 1.277148925781250000e+03 1.277181884765625000e+03 1.277212890625000000e+03 1.277243652343750000e+03 1.277274658203125000e+03 1.277308227539062500e+03 1.277344482421875000e+03 1.277384277343750000e+03 1.277425903320312500e+03 1.277469848632812500e+03 1.277514648437500000e+03 1.277560546875000000e+03 1.277606201171875000e+03 1.277652832031250000e+03 1.277699951171875000e+03 1.277746459960937500e+03 1.277790283203125000e+03 1.277832031250000000e+03 1.277869140625000000e+03 1.277901855468750000e+03 1.277928955078125000e+03 1.277951782226562500e+03 1.277971191406250000e+03 1.277986816406250000e+03 1.277998291015625000e+03 1.278006103515625000e+03 1.278009277343750000e+03 1.278008178710937500e+03 1.278002807617187500e+03 1.277991943359375000e+03 1.277974853515625000e+03 1.277951416015625000e+03 1.277920166015625000e+03 1.277882080078125000e+03 1.277836425781250000e+03 1.277783447265625000e+03 1.277723510742187500e+03 1.277655761718750000e+03 1.277580810546875000e+03 1.277498046875000000e+03 1.277406860351562500e+03 1.277307128906250000e+03 1.277198730468750000e+03 1.277082031250000000e+03 1.276955810546875000e+03 1.276819458007812500e+03 1.276669799804687500e+03 1.276505859375000000e+03 1.276326660156250000e+03 1.276133911132812500e+03 1.275932373046875000e+03 1.275727294921875000e+03 1.275528198242187500e+03 1.275344970703125000e+03 1.275188720703125000e+03 1.275071533203125000e+03 1.275000000000000000e+03
1.273121582031250000e+03 1.273121459960937500e+03 1.273112060546875000e+03 1.273101440429687500e+03 1.273096923828125000e+03 1.273099243164062500e+03 1.273107055664062500e+03 1.273117309570312500e+03 1.273125122070312500e+03 1.273131103515625000e+03 1.273139526367187500e+03 1.273155517578125000e+03 1.273184082031250000e+03 1.273227539062500000e+03 1.273285400390625000e+03 1.273358642578125000e+03 1.273450195312500000e+03 1.273541015625000000e+03 1.273625732421875000e+03 1.273707031250000000e+03 1.273788940429687500e+03 1.273876220703125000e+03 1.273971679687500000e+03 1.274075439453125000e+03 1.274185791015625000e+03 1.274302246093750000e+03 1.274441284179687500e+03 1.274596191406250000e+03 1.274753784179687500e+03 1.274892089843750000e+03 1.275000000000000000e+03 1.275047363281250000e+03 1.275117065429687500e+03 1.275200195312500000e+03 1.275289916992187500e+03 1.275383544921875000e+03 1.275481201171875000e+03 1.275581420898437500e+03 1.275683593750000000e+03 1.275787109375000000e+03 1.275890625000000000e+03 1.275994140625000000e+03 1.276096069335937500e+03 1.276195068359375000e+03 1.276290527343750000e+03 1.276382202148437500e+03 1.276470214843750000e+03 1.276552734375000000e+03 1.276630859375000000e+03 1.276703247070312500e+03 1.276770996093750000e+03 1.276833984375000000e+03 1.276893066406250000e+03 1.276948242187500000e+03 1.276999511718750000e+03 1.277047973632812500e+03 1.277094604492187500e+03 1.277139160156250000e+03 1.277183471679687500e+03 1.277227294921875000e+03 1.277270019531250000e+03 1.277312255859375000e+03 1.277352905273437500e+03 1.277392578125000000e+03 1.277430664062500000e+03 1.277468261718750000e+03 1.277505615234375000e+03 1.277544189453125000e+03 1.277585205078125000e+03 1.277629150390625000e+03 1.277675048828125000e+03 1.277722290039062500e+03 1.277770263671875000e+03 1.277818359375000000e+03 1.277866455078125000e+03 1.277913940429687500e+03 1.277961181640625000e+03 1.278007324218750000e+03 1.278051879882812500e+03 1.278093505859375000e+03 1.278131835937500000e+03 1.278165771484375000e+03 1.278195190429687500e+03 1.278219238281250000e+03 1.278238769531250000e+03 1.278254150390625000e+03 1.278264892578125000e+03 1.278270751953125000e+03 1.278270996093750000e+03 1.278267089843750000e+03 1.278257690429687500e+03 1.278242187500000000e+03 1.278221069335937500e+03 1.278192382812500000e+03 1.278155517578125000e+03 1.278111206054687500e+03 1.278058349609375000e+03 1.277997314453125000e+03 1.277928222656250000e+03 1.277851074218750000e+03 1.277765625000000000e+03 1.277671264648437500e+03 1.277568359375000000e+03 1.277456787109375000e+03 1.277336669921875000e+03 1.277208740234375000e+03 1.277072631835937500e+03 1.276927246093750000e+03 1.276770751953125000e+03 1.276601562500000000e+03 1.276419189453125000e+03 1.276224365234375000e+03 1.276020996093750000e+03 1.275813842773437500e+03 1.275609375000000000e+03 1.275417724609375000e+03 1.275248168945312500e+03 1.275109252929687500e+03 1.275000122070312500e+03
1.272521728515625000e+03 1.272545410156250000e+03 1.272561279296875000e+03 1.272574707031250000e+03 1.272590698242187500e+03 1.272610839843750000e+03 1.272634521484375000e+03 1.272658203125000000e+03 1.272678955078125000e+03 1.272697509765625000e+03 1.272718139648437500e+03 1.272746582031250000e+03 1.272789062500000000e+03 1.272847534179687500e+03 1.272921997070312500e+03 1.273017578125000000e+03 1.273122070312500000e+03 1.273227294921875000e+03 1.273330078125000000e+03 1.273431396484375000e+03 1.273534912109375000e+03 1.273644287109375000e+03 1.273088867187500000e+03 1.273885742187500000e+03 1.274019531250000000e+03 1.274171630859375000e+03 1.274336181640625000e+03 1.274508789062500000e+03 1.274678466796875000e+03 1.274826904296875000e+03 1.274938476562500000e+03 1.275000122070312500e+03 1.275091064453125000e+03 1.275184082031250000e+03 1.275278564453125000e+03 1.275376708984375000e+03 1.275479370117187500e+03 1.275585449218750000e+03 1.275694824218750000e+03 1.275806152343750000e+03 1.275918090820312500e+03 1.276030151367187500e+03 1.276141235351562500e+03 1.276250244140625000e+03 1.276355102539062500e+03 1.276456542968750000e+03 1.276553710937500000e+03 1.276645751953125000e+03 1.276733764648437500e+03 1.276815917968750000e+03 1.276893310546875000e+03 1.276964843750000000e+03 1.277032714843750000e+03 1.277096679687500000e+03 1.277156494140625000e+03 1.277213134765625000e+03 1.277266723632812500e+03 1.277317871093750000e+03 1.277367675781250000e+03 1.277416870117187500e+03 1.277465332031250000e+03 1.277513427734375000e+03 1.277560058593750000e+03 1.277605957031250000e+03 1.277650390625000000e+03 1.277693847656250000e+03 1.277737060546875000e+03 1.277781005859375000e+03 1.277826416015625000e+03 1.277873779296875000e+03 1.277922729492187500e+03 1.277972534179687500e+03 1.278022949218750000e+03 1.278072753906250000e+03 1.278121582031250000e+03 1.278169799804687500e+03 1.278216796875000000e+03 1.278262207031250000e+03 1.278306152343750000e+03 1.278347656250000000e+03 1.278385986328125000e+03 1.278420410156250000e+03 1.278450317382812500e+03 1.278474853515625000e+03 1.278494384765625000e+03 1.278509765625000000e+03 1.278519531250000000e+03 1.278523681640625000e+03 1.278522216796875000e+03 1.278515014648437500e+03 1.278501708984375000e+03 1.278482299804687500e+03 1.278456420898437500e+03 1.278422119140625000e+03 1.278379882812500000e+03 1.278329345703125000e+03 1.278270019531250000e+03 1.278201904296875000e+03 1.278125244140625000e+03 1.278039428710937500e+03 1.277944824218750000e+03 1.277840332031250000e+03 1.277726684570312500e+03 1.277603759765625000e+03 1.277472167968750000e+03 1.277333007812500000e+03 1.277186401367187500e+03 1.277031982421875000e+03 1.276868286132812500e+03 1.276694091796875000e+03 1.276509033203125000e+03 1.276312744140625000e+03 1.276108520507812500e+03 1.275899291992187500e+03 1.275691406250000000e+03 1.275491699218750000e+03 1.275306762695312500e+03 1.275141601562500000e+03 1.275000122070312500e+03
1.271887207031250000e+03 1.271935302734375000e+03 1.271978027343750000e+03 1.272018310546875000e+03 1.272058715820312500e+03 1.272101074218750000e+03 1.272144531250000000e+03 1.272186889648437500e+03 1.272225341796875000e+03 1.272261962890625000e+03 1.272300048828125000e+03 1.272346191406250000e+03 1.272405517578125000e+03 1.272479248046875000e+03 1.272565185546875000e+03 1.272681640625000000e+03 1.272803710937500000e+03 1.272926757812500000e+03 1.273048828125000000e+03 1.273170166015625000e+03 1.273296386718750000e+03 1.273430297851562500e+03 1.273569458007812500e+03 1.273716796875000000e+03 1.273881591796875000e+03 1.274057128906250000e+03 1.274240966796875000e+03 1.274429443359375000e+03 1.274611572265625000e+03 1.274773315429687500e+03 1.274903564453125000e+03 1.275000122070312500e+03 1.275089355468750000e+03 1.275179077148437500e+03 1.275273193359375000e+03 1.275373779296875000e+03 1.275481201171875000e+03 1.275593994140625000e+03 1.275710815429687500e+03 1.275830444335937500e+03 1.275951049804687500e+03 1.276072265625000000e+03 1.276192382812500000e+03 1.276310546875000000e+03 1.276425292968750000e+03 1.276536621093750000e+03 1.276643310546875000e+03 1.276745605468750000e+03 1.276842651367187500e+03 1.276934570312500000e+03 1.277020629882812500e+03 1.277101074218750000e+03 1.277177368164062500e+03 1.277250000000000000e+03 1.277317871093750000e+03 1.277382080078125000e+03 1.277442749023437500e+03 1.277501464843750000e+03 1.277557373046875000e+03 1.277612426757812500e+03 1.277666137695312500e+03 1.277719360351562500e+03 1.277771484375000000e+03 1.277822631835937500e+03 1.277872314453125000e+03 1.277920654296875000e+03 1.277969238281250000e+03 1.278018066406250000e+03 1.278067382812500000e+03 1.278117675781250000e+03 1.278168945312500000e+03 1.278220214843750000e+03 1.278272949218750000e+03 1.278324096679687500e+03 1.278373779296875000e+03 1.278421630859375000e+03 1.278468383789062500e+03 1.278513183593750000e+03 1.278556518554687500e+03 1.278596679687500000e+03 1.278634155273437500e+03 1.278667846679687500e+03 1.278697265625000000e+03 1.278720947265625000e+03 1.278740356445312500e+03 1.278753906250000000e+03 1.278762451171875000e+03 1.278765136718750000e+03 1.278761474609375000e+03 1.278751464843750000e+03 1.278734619140625000e+03 1.278710693359375000e+03 1.278679687500000000e+03 1.278640625000000000e+03 1.278593017578125000e+03 1.278536865234375000e+03 1.278471191406250000e+03 1.278396484375000000e+03 1.278312988281250000e+03 1.278219970703125000e+03 1.278117187500000000e+03 1.278003906250000000e+03 1.277881103515625000e+03 1.277748657226562500e+03 1.277606689453125000e+03 1.277457519531250000e+03 1.277301025390625000e+03 1.277137695312500000e+03 1.276967163085937500e+03 1.276788574218750000e+03 1.276600341796875000e+03 1.276403564453125000e+03 1.276198974609375000e+03 1.275989257812500000e+03 1.275779052734375000e+03 1.275575439453125000e+03 1.275384765625000000e+03 1.275215698242187500e+03 1.275081298828125000e+03
1.271226562500000000e+03 1.271299438476562500e+03 1.271370239257812500e+03 1.271439697265625000e+03 1.271508300781250000e+03 1.271576904296875000e+03 1.271644897460937500e+03 1.271709960937500000e+03 1.271771728515625000e+03 1.271830932617187500e+03 1.271891479492187500e+03 1.271959960937500000e+03 1.272041381835937500e+03 1.272136474609375000e+03 1.272244384765625000e+03 1.272372802734375000e+03 1.272510253906250000e+03 1.272650634765625000e+03 1.272791748046875000e+03 1.272934570312500000e+03 1.273082519531250000e+03 1.273244140625000000e+03 1.273404663085937500e+03 1.273580810546875000e+03 1.273765380859375000e+03 1.273958984375000000e+03 1.274158447265625000e+03 1.274360595703125000e+03 1.274555908203125000e+03 1.274733642578125000e+03 1.274883544921875000e+03 1.275000122070312500e+03 1.275089355468750000e+03 1.275175537109375000e+03 1.275268920898437500e+03 1.275372802734375000e+03 1.275486328125000000e+03 1.275606445312500000e+03 1.275731689453125000e+03 1.275860107421875000e+03 1.275990234375000000e+03 1.276121337890625000e+03 1.276250732421875000e+03 1.276378417968750000e+03 1.276503051757812500e+03 1.276623657226562500e+03 1.276740234375000000e+03 1.276851562500000000e+03 1.276958007812500000e+03 1.277058593750000000e+03 1.277153686523437500e+03 1.277242675781250000e+03 1.277327148437500000e+03 1.277407958984375000e+03 1.277483886718750000e+03 1.277555664062500000e+03 1.277623779296875000e+03 1.277689208984375000e+03 1.277751708984375000e+03 1.277812255859375000e+03 1.277871093750000000e+03 1.277929199218750000e+03 1.277986328125000000e+03 1.278041992187500000e+03 1.278096679687500000e+03 1.278149902343750000e+03 1.278202880859375000e+03 1.278255371093750000e+03 1.278308105468750000e+03 1.278361083984375000e+03 1.278414184570312500e+03 1.278466796875000000e+03 1.278520019531250000e+03 1.278572387695312500e+03 1.278622802734375000e+03 1.278670654296875000e+03 1.278716796875000000e+03 1.278760742187500000e+03 1.278802490234375000e+03 1.278841552734375000e+03 1.278877563476562500e+03 1.278910156250000000e+03 1.278937744140625000e+03 1.278960449218750000e+03 1.278978271484375000e+03 1.278989990234375000e+03 1.278996337890625000e+03 1.278996582031250000e+03 1.278990478515625000e+03 1.278977294921875000e+03 1.278957275390625000e+03 1.278929199218750000e+03 1.278893432617187500e+03 1.278849365234375000e+03 1.278796875000000000e+03 1.278734985351562500e+03 1.278663330078125000e+03 1.278582641601562500e+03 1.278492675781250000e+03 1.278393066406250000e+03 1.278283691406250000e+03 1.278163940429687500e+03 1.278033203125000000e+03 1.277892578125000000e+03 1.277742431640625000e+03 1.277584472656250000e+03 1.277419433593750000e+03 1.277248291015625000e+03 1.277071044921875000e+03 1.276887817382812500e+03 1.276696777343750000e+03 1.276499023437500000e+03 1.276294677734375000e+03 1.276085693359375000e+03 1.275876098632812500e+03 1.275670654296875000e+03 1.275477783203125000e+03 1.275305419921875000e+03 1.275165039062500000e+03
1.270546020507812500e+03 1.270644897460937500e+03 1.270745117187500000e+03 1.270845703125000000e+03 1.270946411132812500e+03 1.271045410156250000e+03 1.271142089843750000e+03 1.271235107421875000e+03 1.271324218750000000e+03 1.271410888671875000e+03 1.271498535156250000e+03 1.271593750000000000e+03 1.271700805664062500e+03 1.271817871093750000e+03 1.271942382812500000e+03 1.272094238281250000e+03 1.272250610351562500e+03 1.272409912109375000e+03 1.272570190429687500e+03 1.272735473632812500e+03 1.272898315429687500e+03 1.273097167968750000e+03 1.273284545898437500e+03 1.273474853515625000e+03 1.273672973632812500e+03 1.273879150390625000e+03 1.274091064453125000e+03 1.274304199218750000e+03 1.274511718750000000e+03 1.274704223632812500e+03 1.274871337890625000e+03 1.275000122070312500e+03 1.275081909179687500e+03 1.275164306640625000e+03 1.275260986328125000e+03 1.275371948242187500e+03 1.275493896484375000e+03 1.275623779296875000e+03 1.275758789062500000e+03 1.275897216796875000e+03 1.276037353515625000e+03 1.276178222656250000e+03 1.276317382812500000e+03 1.276454467773437500e+03 1.276588378906250000e+03 1.276718017578125000e+03 1.276843750000000000e+03 1.276964355468750000e+03 1.277079467773437500e+03 1.277189453125000000e+03 1.277292480468750000e+03 1.277390502929687500e+03 1.277483154296875000e+03 1.277571289062500000e+03 1.277654785156250000e+03 1.277733764648437500e+03 1.277808837890625000e+03 1.277880615234375000e+03 1.277949462890625000e+03 1.278015747070312500e+03 1.278079711914062500e+03 1.278142578125000000e+03 1.278204223632812500e+03 1.278263916015625000e+03 1.278322631835937500e+03 1.278380126953125000e+03 1.278437011718750000e+03 1.278493286132812500e+03 1.278548950195312500e+03 1.278603881835937500e+03 1.278658203125000000e+03 1.278712402343750000e+03 1.278766113281250000e+03 1.278818481445312500e+03 1.278869140625000000e+03 1.278916992187500000e+03 1.278962402343750000e+03 1.279005126953125000e+03 1.279045410156250000e+03 1.279082763671875000e+03 1.279117187500000000e+03 1.279147460937500000e+03 1.279173339843750000e+03 1.279194091796875000e+03 1.279209472656250000e+03 1.279219238281250000e+03 1.279222656250000000e+03 1.279220214843750000e+03 1.279211425781250000e+03 1.279194824218750000e+03 1.279171142578125000e+03 1.279138916015625000e+03 1.279098754882812500e+03 1.279050170898437500e+03 1.278991943359375000e+03 1.278925170898437500e+03 1.278848144531250000e+03 1.278762084960937500e+03 1.278666503906250000e+03 1.278561279296875000e+03 1.278445800781250000e+03 1.278320190429687500e+03 1.278183593750000000e+03 1.278036621093750000e+03 1.277880126953125000e+03 1.277714965820312500e+03 1.277542968750000000e+03 1.277364990234375000e+03 1.277182128906250000e+03 1.276994140625000000e+03 1.276801391601562500e+03 1.276603027343750000e+03 1.276399414062500000e+03 1.276191894531250000e+03 1.275983398437500000e+03 1.275778320312500000e+03 1.275583007812500000e+03 1.275403564453125000e+03 1.275245605468750000e+03
1.269851806640625000e+03 1.269978515625000000e+03 1.270109130859375000e+03 1.270242675781250000e+03 1.270377929687500000e+03 1.270511230468750000e+03 1.270641479492187500e+03 1.270766845703125000e+03 1.270888061523437500e+03 1.271006713867187500e+03 1.271126464843750000e+03 1.271252197265625000e+03 1.271387207031250000e+03 1.271531982421875000e+03 1.271687744140625000e+03 1.271859375000000000e+03 1.272035888671875000e+03 1.272215576171875000e+03 1.272391479492187500e+03 1.272593261718750000e+03 1.272791137695312500e+03 1.272998291015625000e+03 1.273199096679687500e+03 1.273400390625000000e+03 1.273608154296875000e+03 1.273822753906250000e+03 1.274042114257812500e+03 1.274262207031250000e+03 1.274477294921875000e+03 1.274678710937500000e+03 1.274857055664062500e+03 1.275000000000000000e+03 1.275058349609375000e+03 1.275141479492187500e+03 1.275248046875000000e+03 1.275371337890625000e+03 1.275505126953125000e+03 1.275646850585937500e+03 1.275792968750000000e+03 1.275942260742187500e+03 1.276093139648437500e+03 1.276244140625000000e+03 1.276392822265625000e+03 1.276538818359375000e+03 1.276682128906250000e+03 1.276820800781250000e+03 1.276955566406250000e+03 1.277084716796875000e+03 1.277208740234375000e+03 1.277327148437500000e+03 1.277438354492187500e+03 1.277544677734375000e+03 1.277645385742187500e+03 1.277740478515625000e+03 1.277830566406250000e+03 1.277916259765625000e+03 1.277998046875000000e+03 1.278076416015625000e+03 1.278151245117187500e+03 1.278223388671875000e+03 1.278292968750000000e+03 1.278360351562500000e+03 1.278425537109375000e+03 1.278489257812500000e+03 1.278551757812500000e+03 1.278612548828125000e+03 1.278672851562500000e+03 1.278731933593750000e+03 1.278790039062500000e+03 1.278846679687500000e+03 1.278902099609375000e+03 1.278957031250000000e+03 1.279011230468750000e+03 1.279063598632812500e+03 1.279113769531250000e+03 1.279161376953125000e+03 1.279205810546875000e+03 1.279247802734375000e+03 1.279286621093750000e+03 1.279321777343750000e+03 1.279353515625000000e+03 1.279381469726562500e+03 1.279405029296875000e+03 1.279423339843750000e+03 1.279436035156250000e+03 1.279442871093750000e+03 1.279443969726562500e+03 1.279438232421875000e+03 1.279426269531250000e+03 1.279406494140625000e+03 1.279378906250000000e+03 1.279342773437500000e+03 1.279298217773437500e+03 1.279244873046875000e+03 1.279182006835937500e+03 1.279110107421875000e+03 1.279028320312500000e+03 1.278937255859375000e+03 1.278836914062500000e+03 1.278726318359375000e+03 1.278605468750000000e+03 1.278474853515625000e+03 1.278333496093750000e+03 1.278181884765625000e+03 1.278020629882812500e+03 1.277850097656250000e+03 1.277672851562500000e+03 1.277489746093750000e+03 1.277302246093750000e+03 1.277110351562500000e+03 1.276915283203125000e+03 1.276716796875000000e+03 1.276514160156250000e+03 1.276308837890625000e+03 1.276102783203125000e+03 1.275899658203125000e+03 1.275704956054687500e+03 1.275522705078125000e+03 1.275358642578125000e+03
1.269149780273437500e+03 1.269305297851562500e+03 1.269468261718750000e+03 1.269636962890625000e+03 1.269808837890625000e+03 1.269979980468750000e+03 1.270147705078125000e+03 1.270310791015625000e+03 1.270469604492187500e+03 1.270625610351562500e+03 1.270781860351562500e+03 1.270940673828125000e+03 1.271102050781250000e+03 1.271266845703125000e+03 1.271467773437500000e+03 1.271669677734375000e+03 1.271868652343750000e+03 1.272083007812500000e+03 1.272296386718750000e+03 1.272513671875000000e+03 1.272726562500000000e+03 1.272940429687500000e+03 1.273150390625000000e+03 1.273359130859375000e+03 1.273574462890625000e+03 1.273794189453125000e+03 1.274015991210937500e+03 1.274237182617187500e+03 1.274452392578125000e+03 1.274650878906250000e+03 1.274818481445312500e+03 1.274939086914062500e+03 1.275000122070312500e+03 1.275109619140625000e+03 1.275236816406250000e+03 1.275376098632812500e+03 1.275524414062500000e+03 1.275679199218750000e+03 1.275837402343750000e+03 1.275998168945312500e+03 1.276159179687500000e+03 1.276319824218750000e+03 1.276478515625000000e+03 1.276633666992187500e+03 1.276785644531250000e+03 1.276933105468750000e+03 1.277075927734375000e+03 1.277213867187500000e+03 1.277345947265625000e+03 1.277472412109375000e+03 1.277592041015625000e+03 1.277705566406250000e+03 1.277813720703125000e+03 1.277915771484375000e+03 1.278012329101562500e+03 1.278104492187500000e+03 1.278192382812500000e+03 1.278277099609375000e+03 1.278357543945312500e+03 1.278435302734375000e+03 1.278509765625000000e+03 1.278581298828125000e+03 1.278650268554687500e+03 1.278717651367187500e+03 1.278783569335937500e+03 1.278847167968750000e+03 1.278910156250000000e+03 1.278971679687500000e+03 1.279031738281250000e+03 1.279089599609375000e+03 1.279146118164062500e+03 1.279201660156250000e+03 1.279255371093750000e+03 1.279307373046875000e+03 1.279356933593750000e+03 1.279403808593750000e+03 1.279447509765625000e+03 1.279488281250000000e+03 1.279525146484375000e+03 1.279558471679687500e+03 1.279587768554687500e+03 1.279612915039062500e+03 1.279633911132812500e+03 1.279649658203125000e+03 1.279659179687500000e+03 1.279663085937500000e+03 1.279660644531250000e+03 1.279651611328125000e+03 1.279636230468750000e+03 1.279613281250000000e+03 1.279581787109375000e+03 1.279542114257812500e+03 1.279493896484375000e+03 1.279436401367187500e+03 1.279368896484375000e+03 1.279292846679687500e+03 1.279206542968750000e+03 1.279110595703125000e+03 1.279004882812500000e+03 1.278889648437500000e+03 1.278764160156250000e+03 1.278629516601562500e+03 1.278484619140625000e+03 1.278329833984375000e+03 1.278165039062500000e+03 1.277991455078125000e+03 1.277809814453125000e+03 1.277623291015625000e+03 1.277432250976562500e+03 1.277237792968750000e+03 1.277041015625000000e+03 1.276842285156250000e+03 1.276641357421875000e+03 1.276438964843750000e+03 1.276236328125000000e+03 1.276037353515625000e+03 1.275845825195312500e+03 1.275665771484375000e+03 1.275502929687500000e+03
1.268443603515625000e+03 1.268629882812500000e+03 1.268826904296875000e+03 1.269032470703125000e+03 1.269243774414062500e+03 1.269456787109375000e+03 1.269666625976562500e+03 1.269872558593750000e+03 1.270074096679687500e+03 1.270273437500000000e+03 1.270471801757812500e+03 1.270669921875000000e+03 1.270864990234375000e+03 1.271067016601562500e+03 1.271304931640625000e+03 1.271541015625000000e+03 1.271778686523437500e+03 1.272016113281250000e+03 1.272248901367187500e+03 1.272478637695312500e+03 1.272703857421875000e+03 1.272925170898437500e+03 1.273141601562500000e+03 1.273354248046875000e+03 1.273578857421875000e+03 1.273799316406250000e+03 1.274018554687500000e+03 1.274234863281250000e+03 1.274446533203125000e+03 1.274639892578125000e+03 1.274801269531250000e+03 1.274919433593750000e+03 1.275000000000000000e+03 1.275109252929687500e+03 1.275245117187500000e+03 1.275396484375000000e+03 1.275557617187500000e+03 1.275724365234375000e+03 1.275894042968750000e+03 1.276065795898437500e+03 1.276237548828125000e+03 1.276407958984375000e+03 1.276575561523437500e+03 1.276740234375000000e+03 1.276900146484375000e+03 1.277056152343750000e+03 1.277206665039062500e+03 1.277352783203125000e+03 1.277492553710937500e+03 1.277626464843750000e+03 1.277753417968750000e+03 1.277873901367187500e+03 1.277988525390625000e+03 1.278097167968750000e+03 1.278200195312500000e+03 1.278298217773437500e+03 1.278392089843750000e+03 1.278482421875000000e+03 1.278568725585937500e+03 1.278651123046875000e+03 1.278729980468750000e+03 1.278805786132812500e+03 1.278878295898437500e+03 1.278948852539062500e+03 1.279017578125000000e+03 1.279083984375000000e+03 1.279148681640625000e+03 1.279211914062500000e+03 1.279273437500000000e+03 1.279332519531250000e+03 1.279389404296875000e+03 1.279445312500000000e+03 1.279498657226562500e+03 1.279550415039062500e+03 1.279599365234375000e+03 1.279645019531250000e+03 1.279687255859375000e+03 1.279726562500000000e+03 1.279762207031250000e+03 1.279793212890625000e+03 1.279820312500000000e+03 1.279842285156250000e+03 1.279860351562500000e+03 1.279873046875000000e+03 1.279880126953125000e+03 1.279880859375000000e+03 1.279875000000000000e+03 1.279862670898437500e+03 1.279843750000000000e+03 1.279816772460937500e+03 1.279781860351562500e+03 1.279738769531250000e+03 1.279686767578125000e+03 1.279625732421875000e+03 1.279554687500000000e+03 1.279474121093750000e+03 1.279383789062500000e+03 1.279283325195312500e+03 1.279173583984375000e+03 1.279054443359375000e+03 1.278925048828125000e+03 1.278786865234375000e+03 1.278638916015625000e+03 1.278480957031250000e+03 1.278314453125000000e+03 1.278138549804687500e+03 1.277954589843750000e+03 1.277765991210937500e+03 1.277572509765625000e+03 1.277376464843750000e+03 1.277178466796875000e+03 1.276979980468750000e+03 1.276780761718750000e+03 1.276582275390625000e+03 1.276384033203125000e+03 1.276190551757812500e+03 1.276004150390625000e+03 1.275829345703125000e+03 1.275670654296875000e+03
1.267735839843750000e+03 1.267954589843750000e+03 1.268188110351562500e+03 1.268433105468750000e+03 1.268686767578125000e+03 1.268944335937500000e+03 1.269201171875000000e+03 1.269455078125000000e+03 1.269705810546875000e+03 1.269954589843750000e+03 1.270202392578125000e+03 1.270450439453125000e+03 1.270702636718750000e+03 1.270962646484375000e+03 1.271233398437500000e+03 1.271503051757812500e+03 1.271769531250000000e+03 1.272029785156250000e+03 1.272281494140625000e+03 1.272525268554687500e+03 1.272760864257812500e+03 1.272989013671875000e+03 1.273208251953125000e+03 1.273420654296875000e+03 1.273632324218750000e+03 1.273840576171875000e+03 1.274051269531250000e+03 1.274258422851562500e+03 1.274466430664062500e+03 1.274654785156250000e+03 1.274814575195312500e+03 1.274935058593750000e+03 1.275000122070312500e+03 1.275125244140625000e+03 1.275273803710937500e+03 1.275435791015625000e+03 1.275607177734375000e+03 1.275784912109375000e+03 1.275966064453125000e+03 1.276147949218750000e+03 1.276329589843750000e+03 1.276509277343750000e+03 1.276685913085937500e+03 1.276858886718750000e+03 1.277027343750000000e+03 1.277190917968750000e+03 1.277348876953125000e+03 1.277501953125000000e+03 1.277648315429687500e+03 1.277789184570312500e+03 1.277923339843750000e+03 1.278050292968750000e+03 1.278170776367187500e+03 1.278285644531250000e+03 1.278394287109375000e+03 1.278498413085937500e+03 1.278597290039062500e+03 1.278692626953125000e+03 1.278783447265625000e+03 1.278870605468750000e+03 1.278953613281250000e+03 1.279033447265625000e+03 1.279109130859375000e+03 1.279183349609375000e+03 1.279253906250000000e+03 1.279322509765625000e+03 1.279389160156250000e+03 1.279453857421875000e+03 1.279516601562500000e+03 1.279576171875000000e+03 1.279633178710937500e+03 1.279688964843750000e+03 1.279741943359375000e+03 1.279792846679687500e+03 1.279841308593750000e+03 1.279885864257812500e+03 1.279926513671875000e+03 1.279963500976562500e+03 1.279996826171875000e+03 1.280026367187500000e+03 1.280051025390625000e+03 1.280069824218750000e+03 1.280085083007812500e+03 1.280094970703125000e+03 1.280099121093750000e+03 1.280096557617187500e+03 1.280087402343750000e+03 1.280071533203125000e+03 1.280048828125000000e+03 1.280018432617187500e+03 1.279980468750000000e+03 1.279934082031250000e+03 1.279878295898437500e+03 1.279813720703125000e+03 1.279738769531250000e+03 1.279655029296875000e+03 1.279561279296875000e+03 1.279458007812500000e+03 1.279344604492187500e+03 1.279221679687500000e+03 1.279089355468750000e+03 1.278947753906250000e+03 1.278797485351562500e+03 1.278637207031250000e+03 1.278468505859375000e+03 1.278291259765625000e+03 1.278106689453125000e+03 1.277916992187500000e+03 1.277722656250000000e+03 1.277526367187500000e+03 1.277328491210937500e+03 1.277130615234375000e+03 1.276933715820312500e+03 1.276738769531250000e+03 1.276546142578125000e+03 1.276358154296875000e+03 1.276177978515625000e+03 1.276009155273437500e+03 1.275855590820312500e+03
1.267027587890625000e+03 1.267281738281250000e+03 1.267553588867187500e+03 1.267841064453125000e+03 1.268139770507812500e+03 1.268445556640625000e+03 1.268753540039062500e+03 1.269061401367187500e+03 1.269366699218750000e+03 1.269670410156250000e+03 1.269973754882812500e+03 1.270277954101562500e+03 1.270586303710937500e+03 1.270894775390625000e+03 1.271202026367187500e+03 1.271504150390625000e+03 1.271797607421875000e+03 1.272079956054687500e+03 1.272350341796875000e+03 1.272608398437500000e+03 1.272854736328125000e+03 1.273088867187500000e+03 1.273311767578125000e+03 1.273525878906250000e+03 1.273735351562500000e+03 1.273938232421875000e+03 1.274137817382812500e+03 1.274331298828125000e+03 1.274518310546875000e+03 1.274692260742187500e+03 1.274853881835937500e+03 1.275000000000000000e+03 1.275069580078125000e+03 1.275181640625000000e+03 1.275328857421875000e+03 1.275497314453125000e+03 1.275677246093750000e+03 1.275864013671875000e+03 1.276054809570312500e+03 1.276245849609375000e+03 1.276436767578125000e+03 1.276625488281250000e+03 1.276810546875000000e+03 1.276991699218750000e+03 1.277167724609375000e+03 1.277338134765625000e+03 1.277503417968750000e+03 1.277662597656250000e+03 1.277815429687500000e+03 1.277962402343750000e+03 1.278101684570312500e+03 1.278234863281250000e+03 1.278361328125000000e+03 1.278481445312500000e+03 1.278595703125000000e+03 1.278704467773437500e+03 1.278807861328125000e+03 1.278907714843750000e+03 1.279002929687500000e+03 1.279094238281250000e+03 1.279181396484375000e+03 1.279264404296875000e+03 1.279343750000000000e+03 1.279419799804687500e+03 1.279492431640625000e+03 1.279563232421875000e+03 1.279631591796875000e+03 1.279697509765625000e+03 1.279760131835937500e+03 1.279820312500000000e+03 1.279878173828125000e+03 1.279933349609375000e+03 1.279985839843750000e+03 1.280035400390625000e+03 1.280082275390625000e+03 1.280125244140625000e+03 1.280164672851562500e+03 1.280199707031250000e+03 1.280230834960937500e+03 1.280257568359375000e+03 1.280280029296875000e+03 1.280296386718750000e+03 1.280308349609375000e+03 1.280315185546875000e+03 1.280316406250000000e+03 1.280310913085937500e+03 1.280298339843750000e+03 1.280278686523437500e+03 1.280252929687500000e+03 1.280219726562500000e+03 1.280178466796875000e+03 1.280128417968750000e+03 1.280069458007812500e+03 1.280001342773437500e+03 1.279923828125000000e+03 1.279837158203125000e+03 1.279740600585937500e+03 1.279634277343750000e+03 1.279518066406250000e+03 1.279392333984375000e+03 1.279257202148437500e+03 1.279113037109375000e+03 1.278960449218750000e+03 1.278799072265625000e+03 1.278628906250000000e+03 1.278450805664062500e+03 1.278266601562500000e+03 1.278076660156250000e+03 1.277882812500000000e+03 1.277686523437500000e+03 1.277489257812500000e+03 1.277293212890625000e+03 1.277098876953125000e+03 1.276907104492187500e+03 1.276719970703125000e+03 1.276538330078125000e+03 1.276364501953125000e+03 1.276201904296875000e+03 1.276054077148437500e+03
1.266320678710937500e+03 1.266612304687500000e+03 1.266925415039062500e+03 1.267257080078125000e+03 1.267604492187500000e+03 1.267961914062500000e+03 1.268325073242187500e+03 1.268690429687500000e+03 1.269055175781250000e+03 1.269418701171875000e+03 1.269781982421875000e+03 1.270142944335937500e+03 1.270502929687500000e+03 1.270857177734375000e+03 1.271202880859375000e+03 1.271537353515625000e+03 1.271857299804687500e+03 1.272161376953125000e+03 1.272449707031250000e+03 1.272722412109375000e+03 1.272979492187500000e+03 1.273220947265625000e+03 1.273447021484375000e+03 1.273661254882812500e+03 1.273866455078125000e+03 1.274062011718750000e+03 1.274250244140625000e+03 1.274428466796875000e+03 1.274594482421875000e+03 1.274742919921875000e+03 1.274876464843750000e+03 1.275000122070312500e+03 1.275107666015625000e+03 1.275240234375000000e+03 1.275399414062500000e+03 1.275577026367187500e+03 1.275766235351562500e+03 1.275962402343750000e+03 1.276161743164062500e+03 1.276361816406250000e+03 1.276560302734375000e+03 1.276757324218750000e+03 1.276950439453125000e+03 1.277138671875000000e+03 1.277321044921875000e+03 1.277498535156250000e+03 1.277670166015625000e+03 1.277834960937500000e+03 1.277993530273437500e+03 1.278145751953125000e+03 1.278290283203125000e+03 1.278428100585937500e+03 1.278559326171875000e+03 1.278685058593750000e+03 1.278804077148437500e+03 1.278916992187500000e+03 1.279024658203125000e+03 1.279128173828125000e+03 1.279227294921875000e+03 1.279322021484375000e+03 1.279412597656250000e+03 1.279498535156250000e+03 1.279580810546875000e+03 1.279659179687500000e+03 1.279733886718750000e+03 1.279805664062500000e+03 1.279875000000000000e+03 1.279941894531250000e+03 1.280005371093750000e+03 1.280065673828125000e+03 1.280123535156250000e+03 1.280178222656250000e+03 1.280229858398437500e+03 1.280278564453125000e+03 1.280323974609375000e+03 1.280365478515625000e+03 1.280402832031250000e+03 1.280436035156250000e+03 1.280464599609375000e+03 1.280488769531250000e+03 1.280508178710937500e+03 1.280521850585937500e+03 1.280530761718750000e+03 1.280534545898437500e+03 1.280531982421875000e+03 1.280523315429687500e+03 1.280507812500000000e+03 1.280485107421875000e+03 1.280456054687500000e+03 1.280419677734375000e+03 1.280375000000000000e+03 1.280322021484375000e+03 1.280259887695312500e+03 1.280188964843750000e+03 1.280108886718750000e+03 1.280019531250000000e+03 1.279920410156250000e+03 1.279811767578125000e+03 1.279693115234375000e+03 1.279565795898437500e+03 1.279428833007812500e+03 1.279282958984375000e+03 1.279128784179687500e+03 1.278966308593750000e+03 1.278795898437500000e+03 1.278617919921875000e+03 1.278433593750000000e+03 1.278244140625000000e+03 1.278052124023437500e+03 1.277857177734375000e+03 1.277661132812500000e+03 1.277466796875000000e+03 1.277275268554687500e+03 1.277087158203125000e+03 1.276905273437500000e+03 1.276729492187500000e+03 1.276562011718750000e+03 1.276405273437500000e+03 1.276262939453125000e+03
1.265614379882812500e+03 1.265945434570312500e+03 1.266302246093750000e+03 1.266682006835937500e+03 1.267080444335937500e+03 1.267493530273437500e+03 1.267915283203125000e+03 1.268342285156250000e+03 1.268770263671875000e+03 1.269197753906250000e+03 1.269621459960937500e+03 1.270039306640625000e+03 1.270450195312500000e+03 1.270848999023437500e+03 1.271232666015625000e+03 1.271598388671875000e+03 1.271944702148437500e+03 1.272269653320312500e+03 1.272575561523437500e+03 1.272862060546875000e+03 1.273129150390625000e+03 1.273377441406250000e+03 1.273607177734375000e+03 1.273820800781250000e+03 1.274020996093750000e+03 1.274208740234375000e+03 1.274384399414062500e+03 1.274544921875000000e+03 1.274687500000000000e+03 1.274809326171875000e+03 1.274911132812500000e+03 1.275000122070312500e+03 1.275145996093750000e+03 1.275308471679687500e+03 1.275485595703125000e+03 1.275676025390625000e+03 1.275874877929687500e+03 1.276080078125000000e+03 1.276288085937500000e+03 1.276495849609375000e+03 1.276702392578125000e+03 1.276906372070312500e+03 1.277106201171875000e+03 1.277300659179687500e+03 1.277489013671875000e+03 1.277672119140625000e+03 1.277848999023437500e+03 1.278018798828125000e+03 1.278182739257812500e+03 1.278339355468750000e+03 1.278488403320312500e+03 1.278630615234375000e+03 1.278766723632812500e+03 1.278896484375000000e+03 1.279019287109375000e+03 1.279135864257812500e+03 1.279247436523437500e+03 1.279354370117187500e+03 1.279456787109375000e+03 1.279554443359375000e+03 1.279647460937500000e+03 1.279736572265625000e+03 1.279821044921875000e+03 1.279901245117187500e+03 1.279977172851562500e+03 1.280050048828125000e+03 1.280119995117187500e+03 1.280187255859375000e+03 1.280251342773437500e+03 1.280311767578125000e+03 1.280369384765625000e+03 1.280423339843750000e+03 1.280474121093750000e+03 1.280521728515625000e+03 1.280565185546875000e+03 1.280605102539062500e+03 1.280640625000000000e+03 1.280671386718750000e+03 1.280697631835937500e+03 1.280718505859375000e+03 1.280735107421875000e+03 1.280745971679687500e+03 1.280751953125000000e+03 1.280752441406250000e+03 1.280746582031250000e+03 1.280734863281250000e+03 1.280716064453125000e+03 1.280690673828125000e+03 1.280658203125000000e+03 1.280618530273437500e+03 1.280571044921875000e+03 1.280515625000000000e+03 1.280450805664062500e+03 1.280377441406250000e+03 1.280294677734375000e+03 1.280202880859375000e+03 1.280101806640625000e+03 1.279991210937500000e+03 1.279871093750000000e+03 1.279742187500000000e+03 1.279603759765625000e+03 1.279456542968750000e+03 1.279301757812500000e+03 1.279138916015625000e+03 1.278968261718750000e+03 1.278790893554687500e+03 1.278607666015625000e+03 1.278420288085937500e+03 1.278229248046875000e+03 1.278036376953125000e+03 1.277843017578125000e+03 1.277651123046875000e+03 1.277462890625000000e+03 1.277278808593750000e+03 1.277101074218750000e+03 1.276930664062500000e+03 1.276768554687500000e+03 1.276617065429687500e+03 1.276479980468750000e+03
1.264906982421875000e+03 1.265280517578125000e+03 1.265684326171875000e+03 1.266115112304687500e+03 1.266568603515625000e+03 1.267040039062500000e+03 1.267524291992187500e+03 1.268016113281250000e+03 1.268510864257812500e+03 1.269003417968750000e+03 1.269489746093750000e+03 1.269965576171875000e+03 1.270427001953125000e+03 1.270869628906250000e+03 1.271289794921875000e+03 1.271685546875000000e+03 1.272056518554687500e+03 1.272401611328125000e+03 1.272722900390625000e+03 1.273021972656250000e+03 1.273298583984375000e+03 1.273552734375000000e+03 1.273784423828125000e+03 1.273995971679687500e+03 1.274190917968750000e+03 1.274369384765625000e+03 1.274532226562500000e+03 1.274675781250000000e+03 1.274798583984375000e+03 1.274902832031250000e+03 1.275000122070312500e+03 1.275096435546875000e+03 1.275238525390625000e+03 1.275408203125000000e+03 1.275596191406250000e+03 1.275796630859375000e+03 1.276005126953125000e+03 1.276218994140625000e+03 1.276434326171875000e+03 1.276649658203125000e+03 1.276862915039062500e+03 1.277073120117187500e+03 1.277278808593750000e+03 1.277478515625000000e+03 1.277672363281250000e+03 1.277860229492187500e+03 1.278041503906250000e+03 1.278216064453125000e+03 1.278383666992187500e+03 1.278543701171875000e+03 1.278696777343750000e+03 1.278842773437500000e+03 1.278981933593750000e+03 1.279115234375000000e+03 1.279241455078125000e+03 1.279361572265625000e+03 1.279476562500000000e+03 1.279586425781250000e+03 1.279691406250000000e+03 1.279791259765625000e+03 1.279886474609375000e+03 1.279977416992187500e+03 1.280063720703125000e+03 1.280145507812500000e+03 1.280222412109375000e+03 1.280296142578125000e+03 1.280366699218750000e+03 1.280433837890625000e+03 1.280498291015625000e+03 1.280558593750000000e+03 1.280614990234375000e+03 1.280668212890625000e+03 1.280717773437500000e+03 1.280763671875000000e+03 1.280806030273437500e+03 1.280844116210937500e+03 1.280877319335937500e+03 1.280905517578125000e+03 1.280929199218750000e+03 1.280947509765625000e+03 1.280961303710937500e+03 1.280968994140625000e+03 1.280971557617187500e+03 1.280969360351562500e+03 1.280960693359375000e+03 1.280945800781250000e+03 1.280924316406250000e+03 1.280896240234375000e+03 1.280860839843750000e+03 1.280818359375000000e+03 1.280767089843750000e+03 1.280709228515625000e+03 1.280641845703125000e+03 1.280565795898437500e+03 1.280481201171875000e+03 1.280387451171875000e+03 1.280284667968750000e+03 1.280172607421875000e+03 1.280051025390625000e+03 1.279920776367187500e+03 1.279781616210937500e+03 1.279634277343750000e+03 1.279479248046875000e+03 1.279316406250000000e+03 1.279146484375000000e+03 1.278970214843750000e+03 1.278789062500000000e+03 1.278603027343750000e+03 1.278414794921875000e+03 1.278224365234375000e+03 1.278033935546875000e+03 1.277845092773437500e+03 1.277660156250000000e+03 1.277479736328125000e+03 1.277305908203125000e+03 1.277139892578125000e+03 1.276983154296875000e+03 1.276837158203125000e+03 1.276703735351562500e+03
1.264197998046875000e+03 1.264616455078125000e+03 1.265069580078125000e+03 1.265554565429687500e+03 1.266066162109375000e+03 1.266600097656250000e+03 1.267150146484375000e+03 1.267710449218750000e+03 1.268274414062500000e+03 1.268834960937500000e+03 1.269385498046875000e+03 1.269920410156250000e+03 1.270433349609375000e+03 1.270919311523437500e+03 1.271375366210937500e+03 1.271799560546875000e+03 1.272193359375000000e+03 1.272556884765625000e+03 1.272891357421875000e+03 1.273199951171875000e+03 1.273482421875000000e+03 1.273739257812500000e+03 1.273970458984375000e+03 1.274177978515625000e+03 1.274365478515625000e+03 1.274534179687500000e+03 1.274682373046875000e+03 1.274808837890625000e+03 1.274911743164062500e+03 1.275000122070312500e+03 1.275096191406250000e+03 1.275209716796875000e+03 1.275358642578125000e+03 1.275535156250000000e+03 1.275731201171875000e+03 1.275939941406250000e+03 1.276157470703125000e+03 1.276379028320312500e+03 1.276601562500000000e+03 1.276823242187500000e+03 1.277042358398437500e+03 1.277257812500000000e+03 1.277468383789062500e+03 1.277672729492187500e+03 1.277871093750000000e+03 1.278062622070312500e+03 1.278247436523437500e+03 1.278425170898437500e+03 1.278595703125000000e+03 1.278758789062500000e+03 1.278914550781250000e+03 1.279063842773437500e+03 1.279206298828125000e+03 1.279342285156250000e+03 1.279471435546875000e+03 1.279594360351562500e+03 1.279711914062500000e+03 1.279824218750000000e+03 1.279930908203125000e+03 1.280033203125000000e+03 1.280129638671875000e+03 1.280221923828125000e+03 1.280309448242187500e+03 1.280392089843750000e+03 1.280470214843750000e+03 1.280544433593750000e+03 1.280615234375000000e+03 1.280682373046875000e+03 1.280746093750000000e+03 1.280805908203125000e+03 1.280861572265625000e+03 1.280913574218750000e+03 1.280961669921875000e+03 1.281006347656250000e+03 1.281046630859375000e+03 1.281082519531250000e+03 1.281113159179687500e+03 1.281139160156250000e+03 1.281160400390625000e+03 1.281176025390625000e+03 1.281187255859375000e+03 1.281192138671875000e+03 1.281191650390625000e+03 1.281186035156250000e+03 1.281174194335937500e+03 1.281156250000000000e+03 1.281131591796875000e+03 1.281100585937500000e+03 1.281062500000000000e+03 1.281017578125000000e+03 1.280964111328125000e+03 1.280903076171875000e+03 1.280833740234375000e+03 1.280756103515625000e+03 1.280669433593750000e+03 1.280573974609375000e+03 1.280469482421875000e+03 1.280355712890625000e+03 1.280233154296875000e+03 1.280102294921875000e+03 1.279963378906250000e+03 1.279816040039062500e+03 1.279661132812500000e+03 1.279498779296875000e+03 1.279330078125000000e+03 1.279155517578125000e+03 1.278976074218750000e+03 1.278792968750000000e+03 1.278607299804687500e+03 1.278419799804687500e+03 1.278233032226562500e+03 1.278047851562500000e+03 1.277865966796875000e+03 1.277689453125000000e+03 1.277519531250000000e+03 1.277357910156250000e+03 1.277205322265625000e+03 1.277063476562500000e+03 1.276933593750000000e+03
1.263485473632812500e+03 1.263951660156250000e+03 1.264457275390625000e+03 1.264999267578125000e+03 1.265572753906250000e+03 1.266172729492187500e+03 1.266792724609375000e+03 1.267424804687500000e+03 1.268060546875000000e+03 1.268690917968750000e+03 1.269307495117187500e+03 1.269902587890625000e+03 1.270467651367187500e+03 1.270997924804687500e+03 1.271489990234375000e+03 1.271942749023437500e+03 1.272357910156250000e+03 1.272736694335937500e+03 1.273081298828125000e+03 1.273395385742187500e+03 1.273679687500000000e+03 1.273933715820312500e+03 1.274158569335937500e+03 1.274356689453125000e+03 1.274532958984375000e+03 1.274688476562500000e+03 1.274820068359375000e+03 1.274924804687500000e+03 1.275000000000000000e+03 1.275077514648437500e+03 1.275188842773437500e+03 1.275327636718750000e+03 1.275494384765625000e+03 1.275684082031250000e+03 1.275890136718750000e+03 1.276108032226562500e+03 1.276333007812500000e+03 1.276561401367187500e+03 1.276790039062500000e+03 1.277017578125000000e+03 1.277241577148437500e+03 1.277461181640625000e+03 1.277675292968750000e+03 1.277883300781250000e+03 1.278084838867187500e+03 1.278279541015625000e+03 1.278467041015625000e+03 1.278647216796875000e+03 1.278819946289062500e+03 1.278985351562500000e+03 1.279143554687500000e+03 1.279294677734375000e+03 1.279438720703125000e+03 1.279577026367187500e+03 1.279708496093750000e+03 1.279833740234375000e+03 1.279952636718750000e+03 1.280067138671875000e+03 1.280175781250000000e+03 1.280279052734375000e+03 1.280376708984375000e+03 1.280469970703125000e+03 1.280558105468750000e+03 1.280641357421875000e+03 1.280719970703125000e+03 1.280794433593750000e+03 1.280864746093750000e+03 1.280931762695312500e+03 1.280994873046875000e+03 1.281054199218750000e+03 1.281108764648437500e+03 1.281159912109375000e+03 1.281206787109375000e+03 1.281249267578125000e+03 1.281287353515625000e+03 1.281321289062500000e+03 1.281349609375000000e+03 1.281372924804687500e+03 1.281391601562500000e+03 1.281404785156250000e+03 1.281412475585937500e+03 1.281414672851562500e+03 1.281411621093750000e+03 1.281402343750000000e+03 1.281387084960937500e+03 1.281366577148437500e+03 1.281339355468750000e+03 1.281305175781250000e+03 1.281264648437500000e+03 1.281216796875000000e+03 1.281161254882812500e+03 1.281097656250000000e+03 1.281026367187500000e+03 1.280946777343750000e+03 1.280858642578125000e+03 1.280761474609375000e+03 1.280655761718750000e+03 1.280541503906250000e+03 1.280418701171875000e+03 1.280287963867187500e+03 1.280148925781250000e+03 1.280001953125000000e+03 1.279847900390625000e+03 1.279686523437500000e+03 1.279519165039062500e+03 1.279346923828125000e+03 1.279169433593750000e+03 1.278988769531250000e+03 1.278806518554687500e+03 1.278622314453125000e+03 1.278438964843750000e+03 1.278257080078125000e+03 1.278078613281250000e+03 1.277905883789062500e+03 1.277739746093750000e+03 1.277582153320312500e+03 1.277433959960937500e+03 1.277295410156250000e+03 1.277168457031250000e+03
1.262768798828125000e+03 1.263284423828125000e+03 1.263845458984375000e+03 1.264448730468750000e+03 1.265087890625000000e+03 1.265757324218750000e+03 1.266450439453125000e+03 1.267156982421875000e+03 1.267867919921875000e+03 1.268571044921875000e+03 1.269256103515625000e+03 1.269912353515625000e+03 1.270531005859375000e+03 1.271106811523437500e+03 1.271635253906250000e+03 1.272116699218750000e+03 1.272552001953125000e+03 1.272943359375000000e+03 1.273293945312500000e+03 1.273608398437500000e+03 1.273887939453125000e+03 1.274132080078125000e+03 1.274342773437500000e+03 1.274524414062500000e+03 1.274683837890625000e+03 1.274821044921875000e+03 1.274928955078125000e+03 1.275000000000000000e+03 1.275000244140625000e+03 1.275127197265625000e+03 1.275283691406250000e+03 1.275457275390625000e+03 1.275648193359375000e+03 1.275854492187500000e+03 1.276072875976562500e+03 1.276300048828125000e+03 1.276532470703125000e+03 1.276766845703125000e+03 1.277000732421875000e+03 1.277232299804687500e+03 1.277459960937500000e+03 1.277682617187500000e+03 1.277899658203125000e+03 1.278110351562500000e+03 1.278314453125000000e+03 1.278511230468750000e+03 1.278700805664062500e+03 1.278881835937500000e+03 1.279055786132812500e+03 1.279222534179687500e+03 1.279382080078125000e+03 1.279534912109375000e+03 1.279680419921875000e+03 1.279820312500000000e+03 1.279953125000000000e+03 1.280079589843750000e+03 1.280200073242187500e+03 1.280315307617187500e+03 1.280424804687500000e+03 1.280528808593750000e+03 1.280627441406250000e+03 1.280720947265625000e+03 1.280809814453125000e+03 1.280893310546875000e+03 1.280972045898437500e+03 1.281046264648437500e+03 1.281115966796875000e+03 1.281182373046875000e+03 1.281244628906250000e+03 1.281303222656250000e+03 1.281357177734375000e+03 1.281406738281250000e+03 1.281451660156250000e+03 1.281492431640625000e+03 1.281528320312500000e+03 1.281559570312500000e+03 1.281585693359375000e+03 1.281606689453125000e+03 1.281622558593750000e+03 1.281633056640625000e+03 1.281637451171875000e+03 1.281636962890625000e+03 1.281631103515625000e+03 1.281618408203125000e+03 1.281600341796875000e+03 1.281576660156250000e+03 1.281547363281250000e+03 1.281510742187500000e+03 1.281467041015625000e+03 1.281416137695312500e+03 1.281358276367187500e+03 1.281292724609375000e+03 1.281219604492187500e+03 1.281138427734375000e+03 1.281048583984375000e+03 1.280950439453125000e+03 1.280843505859375000e+03 1.280729003906250000e+03 1.280606445312500000e+03 1.280475830078125000e+03 1.280337890625000000e+03 1.280191650390625000e+03 1.280038818359375000e+03 1.279879150390625000e+03 1.279713378906250000e+03 1.279543090820312500e+03 1.279368164062500000e+03 1.279190429687500000e+03 1.279011108398437500e+03 1.278830566406250000e+03 1.278650878906250000e+03 1.278472534179687500e+03 1.278298339843750000e+03 1.278129394531250000e+03 1.277966552734375000e+03 1.277812866210937500e+03 1.277667968750000000e+03 1.277532470703125000e+03 1.277407714843750000e+03
1.262047607421875000e+03 1.262614257812500000e+03 1.263233886718750000e+03 1.263901489257812500e+03 1.264610351562500000e+03 1.265353515625000000e+03 1.266123291015625000e+03 1.266908569335937500e+03 1.267697021484375000e+03 1.268475097656250000e+03 1.269230224609375000e+03 1.269949707031250000e+03 1.270624511718750000e+03 1.271246337890625000e+03 1.271812255859375000e+03 1.272321777343750000e+03 1.272775878906250000e+03 1.273177368164062500e+03 1.273529785156250000e+03 1.273838134765625000e+03 1.274105834960937500e+03 1.274332275390625000e+03 1.274519409179687500e+03 1.274673828125000000e+03 1.274810546875000000e+03 1.274925048828125000e+03 1.275000000000000000e+03 1.275053466796875000e+03 1.275108764648437500e+03 1.275245117187500000e+03 1.275421875000000000e+03 1.275618652343750000e+03 1.275829833984375000e+03 1.276051513671875000e+03 1.276281494140625000e+03 1.276517333984375000e+03 1.276756591796875000e+03 1.276995849609375000e+03 1.277233642578125000e+03 1.277468505859375000e+03 1.277698730468750000e+03 1.277923095703125000e+03 1.278142089843750000e+03 1.278354003906250000e+03 1.278559082031250000e+03 1.278757080078125000e+03 1.278947387695312500e+03 1.279128906250000000e+03 1.279302978515625000e+03 1.279470458984375000e+03 1.279630371093750000e+03 1.279783935546875000e+03 1.279930908203125000e+03 1.280071289062500000e+03 1.280204589843750000e+03 1.280332031250000000e+03 1.280452880859375000e+03 1.280568847656250000e+03 1.280678466796875000e+03 1.280782958984375000e+03 1.280882446289062500e+03 1.280976074218750000e+03 1.281064453125000000e+03 1.281147949218750000e+03 1.281226318359375000e+03 1.281299804687500000e+03 1.281369262695312500e+03 1.281435424804687500e+03 1.281496704101562500e+03 1.281553466796875000e+03 1.281605957031250000e+03 1.281653564453125000e+03 1.281696533203125000e+03 1.281735351562500000e+03 1.281769042968750000e+03 1.281797607421875000e+03 1.281821533203125000e+03 1.281840087890625000e+03 1.281852905273437500e+03 1.281860351562500000e+03 1.281862670898437500e+03 1.281859375000000000e+03 1.281850341796875000e+03 1.281834716796875000e+03 1.281814208984375000e+03 1.281787841796875000e+03 1.281755859375000000e+03 1.281716552734375000e+03 1.281670043945312500e+03 1.281616943359375000e+03 1.281556640625000000e+03 1.281488769531250000e+03 1.281413940429687500e+03 1.281331054687500000e+03 1.281240234375000000e+03 1.281141357421875000e+03 1.281033569335937500e+03 1.280918945312500000e+03 1.280796142578125000e+03 1.280666503906250000e+03 1.280529052734375000e+03 1.280384277343750000e+03 1.280232666015625000e+03 1.280075195312500000e+03 1.279911621093750000e+03 1.279743896484375000e+03 1.279571533203125000e+03 1.279396972656250000e+03 1.279220581054687500e+03 1.279043945312500000e+03 1.278868164062500000e+03 1.278693481445312500e+03 1.278523437500000000e+03 1.278358154296875000e+03 1.278199462890625000e+03 1.278048828125000000e+03 1.277906982421875000e+03 1.277774414062500000e+03 1.277652221679687500e+03
1.261319824218750000e+03 1.261940673828125000e+03 1.262621582031250000e+03 1.263356811523437500e+03 1.264138916015625000e+03 1.264960327148437500e+03 1.265810180664062500e+03 1.266677001953125000e+03 1.267546142578125000e+03 1.268401855468750000e+03 1.269229248046875000e+03 1.270013916015625000e+03 1.270745605468750000e+03 1.271414794921875000e+03 1.272018798828125000e+03 1.272556030273437500e+03 1.273027587890625000e+03 1.273436035156250000e+03 1.273785156250000000e+03 1.274081054687500000e+03 1.274330322265625000e+03 1.274532104492187500e+03 1.274687255859375000e+03 1.274801879882812500e+03 1.274912109375000000e+03 1.275000000000000000e+03 1.275000244140625000e+03 1.275114013671875000e+03 1.275242919921875000e+03 1.275409667968750000e+03 1.275604980468750000e+03 1.275818847656250000e+03 1.276044677734375000e+03 1.276278442382812500e+03 1.276518066406250000e+03 1.276760742187500000e+03 1.277005126953125000e+03 1.277247558593750000e+03 1.277487915039062500e+03 1.277724487304687500e+03 1.277955810546875000e+03 1.278181396484375000e+03 1.278400878906250000e+03 1.278613525390625000e+03 1.278818359375000000e+03 1.279016113281250000e+03 1.279206176757812500e+03 1.279387939453125000e+03 1.279562011718750000e+03 1.279729248046875000e+03 1.279889160156250000e+03 1.280042724609375000e+03 1.280189697265625000e+03 1.280329711914062500e+03 1.280463134765625000e+03 1.280590820312500000e+03 1.280711425781250000e+03 1.280827270507812500e+03 1.280937255859375000e+03 1.281041748046875000e+03 1.281140869140625000e+03 1.281234130859375000e+03 1.281321777343750000e+03 1.281404785156250000e+03 1.281482666015625000e+03 1.281555419921875000e+03 1.281624267578125000e+03 1.281688964843750000e+03 1.281749389648437500e+03 1.281804687500000000e+03 1.281855224609375000e+03 1.281900756835937500e+03 1.281941894531250000e+03 1.281978271484375000e+03 1.282009887695312500e+03 1.282036132812500000e+03 1.282057495117187500e+03 1.282073486328125000e+03 1.282083740234375000e+03 1.282088500976562500e+03 1.282088256835937500e+03 1.282081298828125000e+03 1.282069335937500000e+03 1.282051513671875000e+03 1.282028076171875000e+03 1.281999267578125000e+03 1.281964599609375000e+03 1.281922607421875000e+03 1.281873779296875000e+03 1.281818725585937500e+03 1.281756103515625000e+03 1.281686157226562500e+03 1.281609375000000000e+03 1.281525390625000000e+03 1.281433593750000000e+03 1.281333496093750000e+03 1.281225830078125000e+03 1.281110839843750000e+03 1.280988281250000000e+03 1.280859130859375000e+03 1.280722656250000000e+03 1.280579467773437500e+03 1.280430053710937500e+03 1.280274169921875000e+03 1.280113159179687500e+03 1.279947631835937500e+03 1.279779052734375000e+03 1.279607421875000000e+03 1.279434692382812500e+03 1.279261352539062500e+03 1.279089599609375000e+03 1.278919189453125000e+03 1.278752929687500000e+03 1.278591796875000000e+03 1.278436523437500000e+03 1.278289306640625000e+03 1.278150390625000000e+03 1.278020507812500000e+03 1.277900268554687500e+03
1.260585449218750000e+03 1.261262695312500000e+03 1.262007934570312500e+03 1.262814453125000000e+03 1.263673950195312500e+03 1.264576416015625000e+03 1.265510009765625000e+03 1.266460693359375000e+03 1.267412841796875000e+03 1.268348876953125000e+03 1.269250366210937500e+03 1.270101562500000000e+03 1.270890625000000000e+03 1.271608642578125000e+03 1.272250488281250000e+03 1.272814208984375000e+03 1.273301269531250000e+03 1.273713012695312500e+03 1.274052734375000000e+03 1.274328125000000000e+03 1.274551635742187500e+03 1.274726562500000000e+03 1.274847900390625000e+03 1.274907714843750000e+03 1.275000122070312500e+03 1.275086425781250000e+03 1.275147338867187500e+03 1.275273925781250000e+03 1.275433471679687500e+03 1.275621826171875000e+03 1.275832763671875000e+03 1.276059326171875000e+03 1.276294921875000000e+03 1.276537109375000000e+03 1.276783203125000000e+03 1.277030761718750000e+03 1.277277832031250000e+03 1.277522338867187500e+03 1.277763061523437500e+03 1.278000000000000000e+03 1.278231323242187500e+03 1.278456787109375000e+03 1.278675537109375000e+03 1.278887084960937500e+03 1.279091064453125000e+03 1.279287841796875000e+03 1.279476562500000000e+03 1.279658203125000000e+03 1.279831542968750000e+03 1.279997802734375000e+03 1.280157592773437500e+03 1.280310058593750000e+03 1.280456298828125000e+03 1.280595825195312500e+03 1.280728759765625000e+03 1.280855346679687500e+03 1.280975830078125000e+03 1.281090576171875000e+03 1.281200317382812500e+03 1.281304321289062500e+03 1.281402587890625000e+03 1.281494628906250000e+03 1.281581787109375000e+03 1.281664062500000000e+03 1.281740478515625000e+03 1.281813110351562500e+03 1.281880737304687500e+03 1.281943603515625000e+03 1.282002197265625000e+03 1.282056152343750000e+03 1.282104980468750000e+03 1.282148193359375000e+03 1.282187133789062500e+03 1.282220947265625000e+03 1.282250488281250000e+03 1.282274902343750000e+03 1.282293579101562500e+03 1.282307128906250000e+03 1.282314453125000000e+03 1.282316406250000000e+03 1.282313110351562500e+03 1.282303710937500000e+03 1.282288818359375000e+03 1.282268554687500000e+03 1.282242187500000000e+03 1.282210693359375000e+03 1.282173095703125000e+03 1.282129272460937500e+03 1.282078125000000000e+03 1.282020507812500000e+03 1.281956054687500000e+03 1.281884887695312500e+03 1.281806152343750000e+03 1.281720581054687500e+03 1.281627807617187500e+03 1.281527343750000000e+03 1.281419433593750000e+03 1.281304687500000000e+03 1.281182739257812500e+03 1.281053955078125000e+03 1.280918945312500000e+03 1.280776733398437500e+03 1.280629150390625000e+03 1.280475341796875000e+03 1.280317382812500000e+03 1.280155151367187500e+03 1.279989135742187500e+03 1.279821289062500000e+03 1.279651977539062500e+03 1.279482666015625000e+03 1.279314697265625000e+03 1.279148681640625000e+03 1.278986328125000000e+03 1.278828857421875000e+03 1.278677612304687500e+03 1.278533447265625000e+03 1.278397216796875000e+03 1.278269775390625000e+03 1.278152099609375000e+03
1.259844970703125000e+03 1.260579101562500000e+03 1.261390869140625000e+03 1.262271728515625000e+03 1.263212158203125000e+03 1.264199707031250000e+03 1.265219970703125000e+03 1.266257934570312500e+03 1.267295410156250000e+03 1.268312622070312500e+03 1.269289550781250000e+03 1.270208618164062500e+03 1.271055664062500000e+03 1.271821289062500000e+03 1.272499267578125000e+03 1.273088134765625000e+03 1.273587646484375000e+03 1.273997558593750000e+03 1.274319824218750000e+03 1.274562133789062500e+03 1.274752197265625000e+03 1.274898437500000000e+03 1.275000000000000000e+03 1.275000122070312500e+03 1.275105957031250000e+03 1.275224975585937500e+03 1.275343261718750000e+03 1.275496093750000000e+03 1.275676635742187500e+03 1.275880859375000000e+03 1.276102905273437500e+03 1.276337402343750000e+03 1.276579345703125000e+03 1.276826416015625000e+03 1.277075927734375000e+03 1.277325683593750000e+03 1.277574218750000000e+03 1.277819091796875000e+03 1.278059570312500000e+03 1.278294677734375000e+03 1.278524414062500000e+03 1.278748046875000000e+03 1.278965332031250000e+03 1.279174804687500000e+03 1.279377441406250000e+03 1.279572265625000000e+03 1.279759277343750000e+03 1.279939208984375000e+03 1.280111083984375000e+03 1.280276123046875000e+03 1.280434570312500000e+03 1.280585693359375000e+03 1.280730468750000000e+03 1.280868408203125000e+03 1.281000244140625000e+03 1.281125732421875000e+03 1.281245849609375000e+03 1.281359619140625000e+03 1.281467895507812500e+03 1.281570800781250000e+03 1.281667480468750000e+03 1.281758300781250000e+03 1.281844238281250000e+03 1.281925659179687500e+03 1.282000854492187500e+03 1.282072265625000000e+03 1.282138183593750000e+03 1.282199584960937500e+03 1.282256347656250000e+03 1.282308349609375000e+03 1.282354980468750000e+03 1.282396240234375000e+03 1.282432739257812500e+03 1.282464111328125000e+03 1.282490966796875000e+03 1.282512695312500000e+03 1.282528930664062500e+03 1.282540039062500000e+03 1.282544921875000000e+03 1.282543945312500000e+03 1.282537963867187500e+03 1.282526000976562500e+03 1.282508789062500000e+03 1.282485595703125000e+03 1.282456787109375000e+03 1.282422363281250000e+03 1.282382324218750000e+03 1.282335937500000000e+03 1.282282714843750000e+03 1.282223388671875000e+03 1.282156738281250000e+03 1.282083862304687500e+03 1.282004150390625000e+03 1.281917724609375000e+03 1.281824218750000000e+03 1.281722900390625000e+03 1.281614501953125000e+03 1.281500000000000000e+03 1.281378784179687500e+03 1.281251342773437500e+03 1.281117309570312500e+03 1.280976562500000000e+03 1.280830810546875000e+03 1.280679443359375000e+03 1.280524169921875000e+03 1.280365112304687500e+03 1.280202392578125000e+03 1.280037475585937500e+03 1.279872070312500000e+03 1.279706665039062500e+03 1.279542968750000000e+03 1.279380615234375000e+03 1.279222290039062500e+03 1.279068481445312500e+03 1.278921142578125000e+03 1.278780517578125000e+03 1.278646850585937500e+03 1.278521972656250000e+03 1.278406982421875000e+03
1.259096801757812500e+03 1.259889282226562500e+03 1.260770507812500000e+03 1.261729614257812500e+03 1.262754150390625000e+03 1.263829711914062500e+03 1.264940429687500000e+03 1.266068359375000000e+03 1.267192871093750000e+03 1.268292602539062500e+03 1.269345703125000000e+03 1.270331787109375000e+03 1.271235839843750000e+03 1.272046508789062500e+03 1.272757446289062500e+03 1.273366455078125000e+03 1.273873291015625000e+03 1.274277343750000000e+03 1.274573974609375000e+03 1.274761230468750000e+03 1.274903320312500000e+03 1.275000000000000000e+03 1.275081298828125000e+03 1.275148193359375000e+03 1.275272460937500000e+03 1.275421752929687500e+03 1.275581787109375000e+03 1.275762084960937500e+03 1.275962158203125000e+03 1.276178955078125000e+03 1.276409423828125000e+03 1.276649047851562500e+03 1.276895385742187500e+03 1.277144775390625000e+03 1.277395263671875000e+03 1.277645019531250000e+03 1.277892089843750000e+03 1.278135742187500000e+03 1.278374145507812500e+03 1.278607421875000000e+03 1.278834472656250000e+03 1.279055053710937500e+03 1.279269042968750000e+03 1.279475830078125000e+03 1.279675537109375000e+03 1.279868408203125000e+03 1.280052856445312500e+03 1.280230224609375000e+03 1.280400024414062500e+03 1.280563232421875000e+03 1.280719726562500000e+03 1.280868896484375000e+03 1.281011474609375000e+03 1.281147949218750000e+03 1.281277954101562500e+03 1.281401855468750000e+03 1.281520507812500000e+03 1.281632812500000000e+03 1.281739624023437500e+03 1.281840820312500000e+03 1.281935913085937500e+03 1.282025146484375000e+03 1.282109741210937500e+03 1.282189208984375000e+03 1.282263061523437500e+03 1.282332519531250000e+03 1.282396728515625000e+03 1.282456054687500000e+03 1.282510742187500000e+03 1.282560546875000000e+03 1.282604980468750000e+03 1.282644287109375000e+03 1.282678466796875000e+03 1.282707397460937500e+03 1.282731201171875000e+03 1.282750488281250000e+03 1.282764160156250000e+03 1.282772338867187500e+03 1.282774658203125000e+03 1.282770996093750000e+03 1.282762573242187500e+03 1.282747924804687500e+03 1.282728393554687500e+03 1.282703125000000000e+03 1.282671630859375000e+03 1.282634765625000000e+03 1.282592041015625000e+03 1.282542968750000000e+03 1.282487670898437500e+03 1.282426757812500000e+03 1.282358398437500000e+03 1.282283447265625000e+03 1.282202636718750000e+03 1.282115234375000000e+03 1.282020996093750000e+03 1.281919433593750000e+03 1.281810913085937500e+03 1.281697021484375000e+03 1.281576904296875000e+03 1.281450195312500000e+03 1.281317260742187500e+03 1.281178222656250000e+03 1.281034545898437500e+03 1.280885864257812500e+03 1.280733398437500000e+03 1.280577148437500000e+03 1.280417968750000000e+03 1.280256347656250000e+03 1.280094482421875000e+03 1.279933105468750000e+03 1.279773193359375000e+03 1.279615478515625000e+03 1.279460693359375000e+03 1.279310302734375000e+03 1.279166503906250000e+03 1.279028808593750000e+03 1.278898193359375000e+03 1.278776489257812500e+03 1.278663696289062500e+03
1.258341064453125000e+03 1.259194335937500000e+03 1.260147460937500000e+03 1.261187988281250000e+03 1.262299560546875000e+03 1.263466796875000000e+03 1.264670410156250000e+03 1.265890136718750000e+03 1.267103637695312500e+03 1.268286865234375000e+03 1.269416259765625000e+03 1.270468750000000000e+03 1.271427490234375000e+03 1.272279296875000000e+03 1.273016845703125000e+03 1.273637573242187500e+03 1.274142944335937500e+03 1.274535400390625000e+03 1.274805908203125000e+03 1.274908935546875000e+03 1.275000000000000000e+03 1.275000244140625000e+03 1.275152099609375000e+03 1.275308349609375000e+03 1.275480957031250000e+03 1.275666137695312500e+03 1.275859985351562500e+03 1.276064941406250000e+03 1.276282470703125000e+03 1.276510009765625000e+03 1.276747192382812500e+03 1.276990722656250000e+03 1.277238769531250000e+03 1.277488525390625000e+03 1.277737670898437500e+03 1.277985595703125000e+03 1.278229980468750000e+03 1.278470703125000000e+03 1.278706054687500000e+03 1.278935791015625000e+03 1.279159423828125000e+03 1.279376708984375000e+03 1.279586669921875000e+03 1.279789672851562500e+03 1.279985839843750000e+03 1.280175292968750000e+03 1.280356689453125000e+03 1.280530639648437500e+03 1.280697387695312500e+03 1.280858398437500000e+03 1.281012451171875000e+03 1.281159423828125000e+03 1.281299560546875000e+03 1.281433349609375000e+03 1.281561279296875000e+03 1.281682983398437500e+03 1.281799194335937500e+03 1.281909667968750000e+03 1.282014160156250000e+03 1.282113037109375000e+03 1.282206298828125000e+03 1.282294189453125000e+03 1.282376708984375000e+03 1.282454101562500000e+03 1.282526733398437500e+03 1.282593994140625000e+03 1.282656005859375000e+03 1.282713134765625000e+03 1.282765380859375000e+03 1.282812744140625000e+03 1.282855346679687500e+03 1.282892578125000000e+03 1.282923950195312500e+03 1.282950439453125000e+03 1.282971801757812500e+03 1.282988769531250000e+03 1.282999511718750000e+03 1.283005126953125000e+03 1.283004760742187500e+03 1.282998413085937500e+03 1.282987060546875000e+03 1.282969970703125000e+03 1.282947753906250000e+03 1.282919677734375000e+03 1.282886352539062500e+03 1.282847045898437500e+03 1.282802001953125000e+03 1.282750488281250000e+03 1.282693115234375000e+03 1.282630126953125000e+03 1.282560668945312500e+03 1.282484375000000000e+03 1.282402465820312500e+03 1.282313720703125000e+03 1.282218872070312500e+03 1.282116943359375000e+03 1.282009155273437500e+03 1.281895385742187500e+03 1.281776123046875000e+03 1.281650390625000000e+03 1.281519042968750000e+03 1.281382202148437500e+03 1.281241210937500000e+03 1.281094848632812500e+03 1.280945068359375000e+03 1.280791503906250000e+03 1.280635498046875000e+03 1.280478149414062500e+03 1.280319335937500000e+03 1.280161376953125000e+03 1.280005249023437500e+03 1.279851318359375000e+03 1.279700439453125000e+03 1.279553955078125000e+03 1.279413085937500000e+03 1.279278564453125000e+03 1.279150756835937500e+03 1.279031982421875000e+03 1.278921142578125000e+03
1.257579101562500000e+03 1.258494628906250000e+03 1.259522705078125000e+03 1.260647460937500000e+03 1.261849853515625000e+03 1.263111694335937500e+03 1.264410400390625000e+03 1.265723876953125000e+03 1.267027587890625000e+03 1.268294677734375000e+03 1.269499755859375000e+03 1.270617675781250000e+03 1.271628173828125000e+03 1.272515869140625000e+03 1.273271728515625000e+03 1.273891845703125000e+03 1.274377929687500000e+03 1.274742431640625000e+03 1.274999633789062500e+03 1.275000244140625000e+03 1.275093261718750000e+03 1.275174560546875000e+03 1.275338867187500000e+03 1.275531982421875000e+03 1.275739379882812500e+03 1.275954345703125000e+03 1.276174804687500000e+03 1.276400878906250000e+03 1.276632812500000000e+03 1.276869628906250000e+03 1.277112060546875000e+03 1.277357666015625000e+03 1.277605590820312500e+03 1.277854248046875000e+03 1.278101074218750000e+03 1.278345458984375000e+03 1.278586425781250000e+03 1.278822753906250000e+03 1.279053588867187500e+03 1.279278320312500000e+03 1.279497802734375000e+03 1.279710449218750000e+03 1.279916015625000000e+03 1.280114501953125000e+03 1.280306274414062500e+03 1.280491943359375000e+03 1.280669433593750000e+03 1.280839599609375000e+03 1.281002929687500000e+03 1.281160644531250000e+03 1.281311889648437500e+03 1.281455810546875000e+03 1.281593017578125000e+03 1.281723876953125000e+03 1.281848632812500000e+03 1.281968261718750000e+03 1.282082031250000000e+03 1.282189453125000000e+03 1.282291503906250000e+03 1.282388183593750000e+03 1.282479370117187500e+03 1.282565429687500000e+03 1.282645996093750000e+03 1.282720947265625000e+03 1.282791748046875000e+03 1.282856933593750000e+03 1.282916748046875000e+03 1.282971435546875000e+03 1.283021362304687500e+03 1.283066406250000000e+03 1.283105957031250000e+03 1.283140380859375000e+03 1.283169677734375000e+03 1.283193969726562500e+03 1.283212890625000000e+03 1.283226562500000000e+03 1.283234619140625000e+03 1.283237304687500000e+03 1.283234497070312500e+03 1.283225830078125000e+03 1.283211425781250000e+03 1.283191406250000000e+03 1.283166992187500000e+03 1.283136718750000000e+03 1.283101318359375000e+03 1.283059448242187500e+03 1.283012451171875000e+03 1.282959228515625000e+03 1.282899902343750000e+03 1.282834716796875000e+03 1.282763671875000000e+03 1.282686523437500000e+03 1.282603759765625000e+03 1.282514648437500000e+03 1.282418701171875000e+03 1.282316406250000000e+03 1.282208862304687500e+03 1.282095458984375000e+03 1.281977050781250000e+03 1.281852294921875000e+03 1.281723022460937500e+03 1.281588134765625000e+03 1.281448730468750000e+03 1.281304931640625000e+03 1.281157226562500000e+03 1.281007080078125000e+03 1.280854248046875000e+03 1.280700195312500000e+03 1.280545410156250000e+03 1.280391113281250000e+03 1.280238769531250000e+03 1.280088134765625000e+03 1.279940917968750000e+03 1.279798339843750000e+03 1.279660888671875000e+03 1.279529296875000000e+03 1.279404418945312500e+03 1.279287841796875000e+03 1.279179809570312500e+03
1.256812255859375000e+03 1.257792358398437500e+03 1.258898925781250000e+03 1.260111816406250000e+03 1.261408935546875000e+03 1.262767333984375000e+03 1.264163452148437500e+03 1.265572143554687500e+03 1.266966552734375000e+03 1.268318359375000000e+03 1.269598144531250000e+03 1.270779296875000000e+03 1.271838378906250000e+03 1.272757568359375000e+03 1.273524414062500000e+03 1.274131225585937500e+03 1.274571044921875000e+03 1.274843750000000000e+03 1.275000122070312500e+03 1.275122070312500000e+03 1.275260986328125000e+03 1.275408691406250000e+03 1.275598022460937500e+03 1.275815185546875000e+03 1.276045898437500000e+03 1.276282714843750000e+03 1.276523071289062500e+03 1.276765380859375000e+03 1.277008544921875000e+03 1.277253173828125000e+03 1.277499511718750000e+03 1.277746093750000000e+03 1.277992919921875000e+03 1.278239013671875000e+03 1.278482421875000000e+03 1.278722045898437500e+03 1.278958374023437500e+03 1.279189697265625000e+03 1.279415405273437500e+03 1.279634521484375000e+03 1.279848632812500000e+03 1.280055419921875000e+03 1.280255859375000000e+03 1.280449218750000000e+03 1.280636474609375000e+03 1.280816894531250000e+03 1.280989501953125000e+03 1.281155761718750000e+03 1.281315673828125000e+03 1.281469482421875000e+03 1.281617065429687500e+03 1.281757812500000000e+03 1.281891357421875000e+03 1.282019042968750000e+03 1.282140747070312500e+03 1.282257446289062500e+03 1.282368164062500000e+03 1.282472412109375000e+03 1.282572265625000000e+03 1.282666015625000000e+03 1.282754272460937500e+03 1.282837890625000000e+03 1.282915893554687500e+03 1.282989257812500000e+03 1.283056884765625000e+03 1.283119628906250000e+03 1.283177001953125000e+03 1.283229614257812500e+03 1.283276611328125000e+03 1.283319335937500000e+03 1.283356445312500000e+03 1.283388671875000000e+03 1.283415283203125000e+03 1.283436767578125000e+03 1.283452880859375000e+03 1.283463623046875000e+03 1.283469238281250000e+03 1.283469238281250000e+03 1.283463134765625000e+03 1.283452148437500000e+03 1.283435302734375000e+03 1.283413085937500000e+03 1.283386108398437500e+03 1.283353759765625000e+03 1.283315917968750000e+03 1.283272216796875000e+03 1.283223022460937500e+03 1.283167724609375000e+03 1.283106933593750000e+03 1.283039916992187500e+03 1.282967773437500000e+03 1.282889892578125000e+03 1.282805908203125000e+03 1.282715698242187500e+03 1.282619384765625000e+03 1.282516845703125000e+03 1.282409667968750000e+03 1.282296386718750000e+03 1.282178710937500000e+03 1.282055541992187500e+03 1.281927490234375000e+03 1.281794799804687500e+03 1.281657714843750000e+03 1.281516235351562500e+03 1.281371093750000000e+03 1.281223510742187500e+03 1.281073730468750000e+03 1.280922729492187500e+03 1.280771728515625000e+03 1.280621093750000000e+03 1.280472167968750000e+03 1.280324951171875000e+03 1.280181640625000000e+03 1.280042968750000000e+03 1.279908691406250000e+03 1.279780273437500000e+03 1.279658447265625000e+03 1.279544311523437500e+03 1.279438476562500000e+03
1.256042968750000000e+03 1.257090942382812500e+03 1.258281005859375000e+03 1.259587402343750000e+03 1.260982666015625000e+03 1.262440429687500000e+03 1.263935546875000000e+03 1.265439697265625000e+03 1.266925170898437500e+03 1.268360839843750000e+03 1.269714599609375000e+03 1.270956054687500000e+03 1.272059814453125000e+03 1.273005126953125000e+03 1.273778198242187500e+03 1.274373535156250000e+03 1.274784667968750000e+03 1.275000122070312500e+03 1.275162597656250000e+03 1.275322265625000000e+03 1.275496459960937500e+03 1.275687500000000000e+03 1.275904663085937500e+03 1.276141967773437500e+03 1.276390869140625000e+03 1.276644042968750000e+03 1.276899291992187500e+03 1.277153320312500000e+03 1.277405517578125000e+03 1.277656005859375000e+03 1.277905029296875000e+03 1.278152587890625000e+03 1.278397460937500000e+03 1.278639648437500000e+03 1.278878173828125000e+03 1.279112792968750000e+03 1.279343627929687500e+03 1.279568969726562500e+03 1.279788696289062500e+03 1.280001708984375000e+03 1.280208984375000000e+03 1.280410156250000000e+03 1.280604248046875000e+03 1.280791992187500000e+03 1.280974121093750000e+03 1.281148925781250000e+03 1.281317138671875000e+03 1.281478515625000000e+03 1.281634155273437500e+03 1.281783691406250000e+03 1.281927001953125000e+03 1.282063964843750000e+03 1.282193847656250000e+03 1.282317993164062500e+03 1.282436889648437500e+03 1.282549682617187500e+03 1.282656982421875000e+03 1.282758789062500000e+03 1.282855224609375000e+03 1.282945800781250000e+03 1.283031250000000000e+03 1.283112304687500000e+03 1.283187744140625000e+03 1.283257934570312500e+03 1.283323242187500000e+03 1.283383300781250000e+03 1.283438476562500000e+03 1.283488281250000000e+03 1.283532714843750000e+03 1.283572509765625000e+03 1.283607177734375000e+03 1.283636108398437500e+03 1.283660522460937500e+03 1.283679687500000000e+03 1.283693115234375000e+03 1.283701171875000000e+03 1.283703857421875000e+03 1.283700927734375000e+03 1.283692382812500000e+03 1.283678466796875000e+03 1.283659179687500000e+03 1.283634521484375000e+03 1.283604980468750000e+03 1.283570312500000000e+03 1.283530029296875000e+03 1.283484130859375000e+03 1.283432861328125000e+03 1.283376220703125000e+03 1.283313964843750000e+03 1.283245605468750000e+03 1.283172119140625000e+03 1.283093017578125000e+03 1.283008544921875000e+03 1.282917968750000000e+03 1.282821289062500000e+03 1.282718750000000000e+03 1.282611328125000000e+03 1.282498535156250000e+03 1.282381347656250000e+03 1.282259765625000000e+03 1.282133056640625000e+03 1.282001953125000000e+03 1.281866943359375000e+03 1.281727783203125000e+03 1.281585205078125000e+03 1.281440429687500000e+03 1.281293579101562500e+03 1.281145874023437500e+03 1.280998046875000000e+03 1.280851074218750000e+03 1.280705810546875000e+03 1.280562744140625000e+03 1.280423217773437500e+03 1.280287597656250000e+03 1.280156738281250000e+03 1.280031250000000000e+03 1.279912231445312500e+03 1.279800537109375000e+03 1.279697143554687500e+03
1.255277099609375000e+03 1.256397216796875000e+03 1.257676879882812500e+03 1.259082031250000000e+03 1.260579589843750000e+03 1.262140258789062500e+03 1.263735351562500000e+03 1.265335449218750000e+03 1.266910888671875000e+03 1.268428710937500000e+03 1.269853393554687500e+03 1.271151855468750000e+03 1.272294677734375000e+03 1.273257690429687500e+03 1.274026611328125000e+03 1.274601806640625000e+03 1.274999023437500000e+03 1.275191406250000000e+03 1.275371093750000000e+03 1.275564086914062500e+03 1.275773925781250000e+03 1.276000000000000000e+03 1.276243652343750000e+03 1.276500732421875000e+03 1.276765258789062500e+03 1.277031982421875000e+03 1.277297607421875000e+03 1.277560791015625000e+03 1.277819335937500000e+03 1.278073974609375000e+03 1.278325195312500000e+03 1.278571533203125000e+03 1.278813720703125000e+03 1.279052001953125000e+03 1.279285888671875000e+03 1.279514892578125000e+03 1.279739257812500000e+03 1.279958251953125000e+03 1.280171142578125000e+03 1.280378173828125000e+03 1.280578613281250000e+03 1.280773071289062500e+03 1.280960449218750000e+03 1.281142211914062500e+03 1.281318115234375000e+03 1.281487060546875000e+03 1.281649902343750000e+03 1.281806640625000000e+03 1.281957031250000000e+03 1.282102294921875000e+03 1.282241210937500000e+03 1.282373779296875000e+03 1.282500000000000000e+03 1.282620361328125000e+03 1.282735351562500000e+03 1.282844238281250000e+03 1.282948242187500000e+03 1.283046386718750000e+03 1.283139892578125000e+03 1.283227294921875000e+03 1.283309814453125000e+03 1.283387451171875000e+03 1.283459960937500000e+03 1.283527343750000000e+03 1.283590332031250000e+03 1.283647460937500000e+03 1.283699951171875000e+03 1.283747436523437500e+03 1.283789062500000000e+03 1.283825927734375000e+03 1.283857177734375000e+03 1.283883544921875000e+03 1.283904907226562500e+03 1.283921630859375000e+03 1.283932373046875000e+03 1.283937500000000000e+03 1.283937500000000000e+03 1.283931640625000000e+03 1.283920654296875000e+03 1.283904052734375000e+03 1.283882446289062500e+03 1.283855224609375000e+03 1.283823242187500000e+03 1.283786376953125000e+03 1.283743652343750000e+03 1.283695922851562500e+03 1.283643066406250000e+03 1.283584716796875000e+03 1.283521240234375000e+03 1.283451782226562500e+03 1.283377441406250000e+03 1.283297363281250000e+03 1.283211425781250000e+03 1.283120117187500000e+03 1.283023193359375000e+03 1.282920654296875000e+03 1.282813354492187500e+03 1.282701904296875000e+03 1.282585693359375000e+03 1.282464965820312500e+03 1.282339233398437500e+03 1.282209716796875000e+03 1.282076293945312500e+03 1.281939575195312500e+03 1.281799560546875000e+03 1.281657348632812500e+03 1.281514160156250000e+03 1.281369873046875000e+03 1.281225341796875000e+03 1.281081787109375000e+03 1.280939819335937500e+03 1.280800170898437500e+03 1.280664062500000000e+03 1.280531494140625000e+03 1.280403564453125000e+03 1.280281372070312500e+03 1.280165161132812500e+03 1.280055664062500000e+03 1.279954345703125000e+03
1.254523803710937500e+03 1.255724365234375000e+03 1.257101318359375000e+03 1.258611083984375000e+03 1.260214599609375000e+03 1.261879272460937500e+03 1.263574096679687500e+03 1.265268554687500000e+03 1.266931396484375000e+03 1.268528076171875000e+03 1.270020996093750000e+03 1.271371459960937500e+03 1.272546142578125000e+03 1.273515625000000000e+03 1.274257690429687500e+03 1.274757812500000000e+03 1.275001098632812500e+03 1.275302734375000000e+03 1.275568359375000000e+03 1.275820800781250000e+03 1.276074707031250000e+03 1.276335937500000000e+03 1.276605712890625000e+03 1.276881835937500000e+03 1.277160644531250000e+03 1.277438720703125000e+03 1.277713256835937500e+03 1.277982788085937500e+03 1.278245849609375000e+03 1.278503295898437500e+03 1.278754760742187500e+03 1.279000000000000000e+03 1.279239990234375000e+03 1.279474121093750000e+03 1.279702392578125000e+03 1.279925537109375000e+03 1.280143310546875000e+03 1.280355468750000000e+03 1.280561279296875000e+03 1.280761108398437500e+03 1.280955322265625000e+03 1.281142333984375000e+03 1.281322509765625000e+03 1.281498046875000000e+03 1.281666748046875000e+03 1.281830078125000000e+03 1.281987426757812500e+03 1.282138671875000000e+03 1.282283935546875000e+03 1.282424194335937500e+03 1.282558349609375000e+03 1.282686523437500000e+03 1.282808837890625000e+03 1.282925170898437500e+03 1.283035888671875000e+03 1.283141113281250000e+03 1.283240722656250000e+03 1.283335449218750000e+03 1.283425170898437500e+03 1.283509765625000000e+03 1.283589233398437500e+03 1.283663818359375000e+03 1.283733154296875000e+03 1.283797119140625000e+03 1.283857177734375000e+03 1.283911865234375000e+03 1.283961425781250000e+03 1.284005737304687500e+03 1.284044189453125000e+03 1.284078247070312500e+03 1.284106689453125000e+03 1.284130371093750000e+03 1.284148681640625000e+03 1.284162475585937500e+03 1.284170410156250000e+03 1.284172607421875000e+03 1.284169921875000000e+03 1.284161621093750000e+03 1.284148315429687500e+03 1.284128906250000000e+03 1.284104492187500000e+03 1.284075195312500000e+03 1.284040649414062500e+03 1.284001220703125000e+03 1.283956909179687500e+03 1.283907714843750000e+03 1.283853027343750000e+03 1.283793090820312500e+03 1.283728027343750000e+03 1.283657470703125000e+03 1.283582031250000000e+03 1.283500854492187500e+03 1.283414062500000000e+03 1.283322265625000000e+03 1.283225341796875000e+03 1.283123291015625000e+03 1.283016113281250000e+03 1.282905395507812500e+03 1.282790039062500000e+03 1.282669555664062500e+03 1.282545532226562500e+03 1.282417724609375000e+03 1.282286499023437500e+03 1.282152099609375000e+03 1.282014648437500000e+03 1.281875244140625000e+03 1.281735107421875000e+03 1.281594238281250000e+03 1.281453125000000000e+03 1.281312500000000000e+03 1.281173583984375000e+03 1.281037109375000000e+03 1.280904174804687500e+03 1.280774658203125000e+03 1.280649658203125000e+03 1.280530273437500000e+03 1.280416748046875000e+03 1.280309692382812500e+03 1.280210815429687500e+03
1.253800537109375000e+03 1.255093505859375000e+03 1.256576904296875000e+03 1.258196044921875000e+03 1.259907226562500000e+03 1.261673950195312500e+03 1.263465576171875000e+03 1.265250244140625000e+03 1.266996093750000000e+03 1.268666503906250000e+03 1.270221679687500000e+03 1.271618652343750000e+03 1.272818725585937500e+03 1.273787597656250000e+03 1.274508789062500000e+03 1.274998046875000000e+03 1.275226562500000000e+03 1.275510742187500000e+03 1.275808837890625000e+03 1.276104248046875000e+03 1.276397705078125000e+03 1.276691162109375000e+03 1.276985107421875000e+03 1.277280273437500000e+03 1.277572509765625000e+03 1.277860229492187500e+03 1.278141845703125000e+03 1.278416259765625000e+03 1.278682373046875000e+03 1.278941284179687500e+03 1.279192138671875000e+03 1.279435791015625000e+03 1.279672241210937500e+03 1.279901855468750000e+03 1.280124755859375000e+03 1.280341552734375000e+03 1.280552001953125000e+03 1.280756591796875000e+03 1.280955932617187500e+03 1.281148925781250000e+03 1.281335815429687500e+03 1.281515625000000000e+03 1.281688964843750000e+03 1.281857421875000000e+03 1.282019775390625000e+03 1.282177246093750000e+03 1.282328369140625000e+03 1.282473999023437500e+03 1.282614257812500000e+03 1.282748779296875000e+03 1.282877563476562500e+03 1.283000976562500000e+03 1.283118896484375000e+03 1.283231445312500000e+03 1.283338134765625000e+03 1.283439208984375000e+03 1.283534667968750000e+03 1.283625854492187500e+03 1.283711791992187500e+03 1.283792968750000000e+03 1.283868896484375000e+03 1.283939697265625000e+03 1.284005859375000000e+03 1.284066650390625000e+03 1.284123291015625000e+03 1.284174804687500000e+03 1.284221191406250000e+03 1.284262939453125000e+03 1.284299072265625000e+03 1.284329711914062500e+03 1.284355346679687500e+03 1.284376586914062500e+03 1.284392333984375000e+03 1.284402587890625000e+03 1.284407470703125000e+03 1.284407226562500000e+03 1.284401855468750000e+03 1.284390869140625000e+03 1.284374755859375000e+03 1.284352783203125000e+03 1.284325195312500000e+03 1.284293212890625000e+03 1.284256835937500000e+03 1.284215820312500000e+03 1.284169677734375000e+03 1.284118652343750000e+03 1.284061767578125000e+03 1.284000244140625000e+03 1.283933837890625000e+03 1.283862304687500000e+03 1.283785644531250000e+03 1.283703613281250000e+03 1.283616455078125000e+03 1.283524414062500000e+03 1.283427246093750000e+03 1.283325439453125000e+03 1.283219116210937500e+03 1.283108764648437500e+03 1.282994140625000000e+03 1.282874511718750000e+03 1.282751953125000000e+03 1.282625488281250000e+03 1.282496215820312500e+03 1.282364257812500000e+03 1.282229736328125000e+03 1.282093261718750000e+03 1.281955810546875000e+03 1.281817871093750000e+03 1.281679931640625000e+03 1.281542236328125000e+03 1.281406250000000000e+03 1.281272949218750000e+03 1.281142578125000000e+03 1.281016601562500000e+03 1.280894775390625000e+03 1.280777954101562500e+03 1.280666870117187500e+03 1.280562744140625000e+03 1.280466186523437500e+03
1.253138061523437500e+03 1.254536865234375000e+03 1.256132812500000000e+03 1.257862792968750000e+03 1.259678466796875000e+03 1.261542480468750000e+03 1.263423706054687500e+03 1.265291259765625000e+03 1.267111816406250000e+03 1.268848144531250000e+03 1.270457763671875000e+03 1.271893920898437500e+03 1.273110107421875000e+03 1.274057861328125000e+03 1.274694946289062500e+03 1.275001953125000000e+03 1.275374267578125000e+03 1.275732177734375000e+03 1.276078613281250000e+03 1.276414794921875000e+03 1.276742675781250000e+03 1.277064331054687500e+03 1.277380126953125000e+03 1.277691406250000000e+03 1.277995361328125000e+03 1.278291748046875000e+03 1.278579589843750000e+03 1.278857910156250000e+03 1.279126464843750000e+03 1.279385620117187500e+03 1.279635009765625000e+03 1.279875976562500000e+03 1.280108398437500000e+03 1.280333007812500000e+03 1.280550048828125000e+03 1.280760253906250000e+03 1.280963623046875000e+03 1.281161499023437500e+03 1.281353515625000000e+03 1.281539428710937500e+03 1.281718627929687500e+03 1.281891235351562500e+03 1.282057983398437500e+03 1.282219726562500000e+03 1.282375732421875000e+03 1.282526855468750000e+03 1.282671752929687500e+03 1.282811889648437500e+03 1.282946289062500000e+03 1.283074951171875000e+03 1.283198486328125000e+03 1.283317138671875000e+03 1.283430419921875000e+03 1.283538574218750000e+03 1.283641113281250000e+03 1.283737792968750000e+03 1.283829711914062500e+03 1.283916748046875000e+03 1.283999023437500000e+03 1.284075927734375000e+03 1.284147705078125000e+03 1.284215332031250000e+03 1.284277954101562500e+03 1.284335815429687500e+03 1.284389160156250000e+03 1.284437500000000000e+03 1.284480468750000000e+03 1.284518554687500000e+03 1.284551879882812500e+03 1.284579711914062500e+03 1.284602539062500000e+03 1.284620361328125000e+03 1.284633056640625000e+03 1.284640625000000000e+03 1.284643188476562500e+03 1.284640136718750000e+03 1.284632324218750000e+03 1.284618408203125000e+03 1.284599609375000000e+03 1.284575439453125000e+03 1.284545776367187500e+03 1.284511474609375000e+03 1.284472656250000000e+03 1.284428955078125000e+03 1.284380859375000000e+03 1.284327758789062500e+03 1.284269775390625000e+03 1.284207031250000000e+03 1.284138916015625000e+03 1.284066162109375000e+03 1.283988403320312500e+03 1.283905761718750000e+03 1.283818359375000000e+03 1.283726074218750000e+03 1.283629150390625000e+03 1.283527709960937500e+03 1.283421997070312500e+03 1.283312011718750000e+03 1.283198120117187500e+03 1.283079956054687500e+03 1.282958374023437500e+03 1.282833740234375000e+03 1.282706420898437500e+03 1.282576660156250000e+03 1.282444335937500000e+03 1.282310791015625000e+03 1.282176269531250000e+03 1.282041015625000000e+03 1.281905761718750000e+03 1.281771362304687500e+03 1.281638305664062500e+03 1.281507812500000000e+03 1.281380493164062500e+03 1.281257568359375000e+03 1.281138183593750000e+03 1.281024169921875000e+03 1.280915527343750000e+03 1.280813842773437500e+03 1.280719238281250000e+03
1.252589599609375000e+03 1.254102539062500000e+03 1.255808349609375000e+03 1.257641113281250000e+03 1.259551391601562500e+03 1.261501953125000000e+03 1.263462280273437500e+03 1.265400878906250000e+03 1.267284545898437500e+03 1.269074462890625000e+03 1.270727172851562500e+03 1.272194335937500000e+03 1.273424316406250000e+03 1.274365234375000000e+03 1.274996093750000000e+03 1.275286132812500000e+03 1.275634521484375000e+03 1.276009033203125000e+03 1.276384399414062500e+03 1.276751098632812500e+03 1.277106689453125000e+03 1.277451416015625000e+03 1.277786376953125000e+03 1.278112060546875000e+03 1.278426513671875000e+03 1.278730712890625000e+03 1.279022705078125000e+03 1.279303955078125000e+03 1.279573730468750000e+03 1.279832397460937500e+03 1.280080322265625000e+03 1.280317626953125000e+03 1.280546142578125000e+03 1.280765380859375000e+03 1.280976562500000000e+03 1.281180175781250000e+03 1.281376464843750000e+03 1.281567382812500000e+03 1.281751831054687500e+03 1.281930419921875000e+03 1.282102539062500000e+03 1.282269042968750000e+03 1.282429077148437500e+03 1.282583862304687500e+03 1.282733520507812500e+03 1.282877807617187500e+03 1.283016601562500000e+03 1.283150390625000000e+03 1.283278564453125000e+03 1.283401855468750000e+03 1.283520507812500000e+03 1.283634033203125000e+03 1.283742309570312500e+03 1.283845825195312500e+03 1.283943847656250000e+03 1.284036376953125000e+03 1.284124633789062500e+03 1.284207641601562500e+03 1.284285644531250000e+03 1.284358398437500000e+03 1.284426757812500000e+03 1.284490234375000000e+03 1.284549560546875000e+03 1.284604003906250000e+03 1.284653808593750000e+03 1.284698730468750000e+03 1.284738281250000000e+03 1.284772705078125000e+03 1.284803100585937500e+03 1.284827880859375000e+03 1.284847900390625000e+03 1.284862792968750000e+03 1.284872802734375000e+03 1.284877319335937500e+03 1.284877197265625000e+03 1.284871093750000000e+03 1.284860595703125000e+03 1.284844238281250000e+03 1.284822509765625000e+03 1.284796142578125000e+03 1.284764770507812500e+03 1.284728027343750000e+03 1.284686645507812500e+03 1.284640869140625000e+03 1.284590942382812500e+03 1.284535888671875000e+03 1.284476806640625000e+03 1.284412719726562500e+03 1.284343261718750000e+03 1.284269287109375000e+03 1.284190429687500000e+03 1.284107299804687500e+03 1.284019775390625000e+03 1.283927124023437500e+03 1.283830200195312500e+03 1.283729492187500000e+03 1.283624267578125000e+03 1.283514648437500000e+03 1.283401123046875000e+03 1.283284423828125000e+03 1.283164550781250000e+03 1.283041992187500000e+03 1.282916503906250000e+03 1.282788818359375000e+03 1.282658691406250000e+03 1.282527587890625000e+03 1.282395751953125000e+03 1.282263183593750000e+03 1.282130493164062500e+03 1.281999023437500000e+03 1.281869140625000000e+03 1.281741455078125000e+03 1.281616821289062500e+03 1.281496215820312500e+03 1.281379394531250000e+03 1.281267944335937500e+03 1.281161621093750000e+03 1.281062377929687500e+03 1.280970214843750000e+03
1.252239501953125000e+03 1.253850341796875000e+03 1.255645996093750000e+03 1.257561767578125000e+03 1.259548339843750000e+03 1.261568481445312500e+03 1.263591552734375000e+03 1.265585205078125000e+03 1.267514892578125000e+03 1.269341186523437500e+03 1.271020751953125000e+03 1.272503295898437500e+03 1.273728515625000000e+03 1.274601074218750000e+03 1.275004272460937500e+03 1.275466064453125000e+03 1.275894287109375000e+03 1.276308349609375000e+03 1.276713134765625000e+03 1.277105590820312500e+03 1.277485107421875000e+03 1.277850341796875000e+03 1.278201538085937500e+03 1.278539306640625000e+03 1.278863037109375000e+03 1.279173339843750000e+03 1.279469238281250000e+03 1.279752441406250000e+03 1.280022338867187500e+03 1.280279663085937500e+03 1.280525024414062500e+03 1.280759277343750000e+03 1.280983398437500000e+03 1.281197631835937500e+03 1.281402221679687500e+03 1.281598999023437500e+03 1.281788574218750000e+03 1.281972167968750000e+03 1.282149414062500000e+03 1.282321166992187500e+03 1.282486572265625000e+03 1.282646484375000000e+03 1.282799560546875000e+03 1.282947753906250000e+03 1.283090820312500000e+03 1.283228759765625000e+03 1.283361328125000000e+03 1.283488769531250000e+03 1.283611328125000000e+03 1.283729003906250000e+03 1.283841796875000000e+03 1.283949829101562500e+03 1.284053710937500000e+03 1.284152221679687500e+03 1.284246093750000000e+03 1.284334472656250000e+03 1.284418457031250000e+03 1.284497558593750000e+03 1.284571044921875000e+03 1.284639892578125000e+03 1.284704345703125000e+03 1.284764160156250000e+03 1.284819335937500000e+03 1.284870361328125000e+03 1.284916503906250000e+03 1.284957763671875000e+03 1.284993896484375000e+03 1.285025878906250000e+03 1.285052734375000000e+03 1.285074707031250000e+03 1.285091796875000000e+03 1.285103515625000000e+03 1.285110351562500000e+03 1.285112304687500000e+03 1.285109130859375000e+03 1.285100341796875000e+03 1.285087036132812500e+03 1.285068115234375000e+03 1.285044067382812500e+03 1.285015136718750000e+03 1.284981445312500000e+03 1.284942626953125000e+03 1.284899414062500000e+03 1.284851562500000000e+03 1.284799560546875000e+03 1.284743164062500000e+03 1.284682617187500000e+03 1.284617187500000000e+03 1.284546386718750000e+03 1.284470947265625000e+03 1.284391113281250000e+03 1.284307861328125000e+03 1.284220092773437500e+03 1.284127441406250000e+03 1.284031005859375000e+03 1.283930664062500000e+03 1.283825683593750000e+03 1.283716308593750000e+03 1.283603759765625000e+03 1.283488281250000000e+03 1.283370117187500000e+03 1.283249023437500000e+03 1.283125366210937500e+03 1.282999877929687500e+03 1.282872192382812500e+03 1.282743652343750000e+03 1.282614257812500000e+03 1.282483642578125000e+03 1.282354003906250000e+03 1.282224975585937500e+03 1.282098144531250000e+03 1.281973632812500000e+03 1.281851928710937500e+03 1.281733520507812500e+03 1.281618896484375000e+03 1.281510009765625000e+03 1.281406005859375000e+03 1.281308837890625000e+03 1.281219482421875000e+03
