3.961000061035156250e+02,3.959899902343750000e+02,3.961300048828125000e+02,3.965700073242187500e+02,3.965400085449218750e+02,3.964599914550781250e+02,3.963999938964843750e+02,3.962200012207031250e+02,3.961199951171875000e+02,3.954299926757812500e+02,3.967300109863281250e+02,3.953200073242187500e+02,3.953900146484375000e+02,3.951700134277343750e+02,3.950799865722656250e+02,3.949899902343750000e+02,3.949200134277343750e+02,3.949299926757812500e+02,3.948699951171875000e+02,3.949100036621093750e+02,3.949599914550781250e+02,3.949500122070312500e+02,3.949299926757812500e+02,3.949599914550781250e+02,3.950100097656250000e+02,3.950400085449218750e+02,3.950799865722656250e+02,3.950899963378906250e+02,3.950899963378906250e+02,3.951199951171875000e+02,3.950299987792968750e+02,3.949500122070312500e+02,3.949100036621093750e+02,3.948299865722656250e+02,3.947900085449218750e+02,3.947799987792968750e+02,3.948399963378906250e+02,3.948500061035156250e+02,3.949299926757812500e+02,3.949700012207031250e+02,3.951000061035156250e+02,3.952300109863281250e+02,3.953999938964843750e+02,3.954500122070312500e+02,3.955599975585937500e+02,3.956900024414062500e+02,3.957900085449218750e+02,3.958399963378906250e+02,3.958599853515625000e+02,3.959400024414062500e+02,3.959400024414062500e+02,3.959400024414062500e+02,3.959299926757812500e+02,3.959599914550781250e+02,3.960199890136718750e+02,3.960599975585937500e+02,3.961700134277343750e+02,3.962300109863281250e+02,3.962600097656250000e+02,3.962999877929687500e+02,3.963099975585937500e+02,3.962300109863281250e+02,3.962600097656250000e+02,3.961000061035156250e+02,3.960599975585937500e+02,3.959599914550781250e+02,3.958299865722656250e+02,3.957099914550781250e+02,3.956400146484375000e+02,3.955100097656250000e+02,3.953699951171875000e+02,3.952600097656250000e+02,3.951700134277343750e+02,3.950799865722656250e+02,3.950100097656250000e+02,3.947900085449218750e+02,3.946600036621093750e+02,3.946000061035156250e+02,3.945100097656250000e+02,3.943599853515625000e+02,3.942900085449218750e+02,3.940100097656250000e+02,3.940100097656250000e+02,3.937699890136718750e+02,3.936700134277343750e+02,3.935499877929687500e+02,3.935299987792968750e+02,3.934700012207031250e+02,3.934100036621093750e+02,3.933099975585937500e+02,3.930299987792968750e+02,3.928699951171875000e+02,3.927999877929687500e+02,3.926799926757812500e+02,3.926300048828125000e+02,3.926199951171875000e+02,3.925199890136718750e+02,3.924400024414062500e+02,3.923399963378906250e+02,3.923200073242187500e+02,3.922699890136718750e+02,3.920899963378906250e+02,3.920700073242187500e+02,3.920899963378906250e+02,3.921600036621093750e+02,3.922300109863281250e+02,3.923800048828125000e+02,3.925599975585937500e+02,3.927200012207031250e+02,3.927699890136718750e+02,3.928699951171875000e+02,3.931400146484375000e+02,3.933399963378906250e+02,3.935599975585937500e+02,3.938900146484375000e+02,3.940000000000000000e+02,3.942099914550781250e+02,3.944299926757812500e+02,3.947399902343750000e+02
3.960899963378906250e+02,3.962999877929687500e+02,3.964299926757812500e+02,3.967399902343750000e+02,3.966400146484375000e+02,3.966199951171875000e+02,3.965400085449218750e+02,3.963399963378906250e+02,3.962900085449218750e+02,3.958800048828125000e+02,3.968999938964843750e+02,3.955700073242187500e+02,3.955299987792968750e+02,3.953900146484375000e+02,3.952300109863281250e+02,3.951000061035156250e+02,3.950199890136718750e+02,3.950199890136718750e+02,3.949899902343750000e+02,3.949899902343750000e+02,3.949400024414062500e+02,3.949800109863281250e+02,3.950199890136718750e+02,3.950199890136718750e+02,3.950700073242187500e+02,3.950799865722656250e+02,3.951000061035156250e+02,3.951199951171875000e+02,3.951900024414062500e+02,3.951700134277343750e+02,3.951099853515625000e+02,3.950400085449218750e+02,3.949599914550781250e+02,3.948800048828125000e+02,3.948699951171875000e+02,3.948299865722656250e+02,3.947799987792968750e+02,3.948200073242187500e+02,3.948699951171875000e+02,3.949299926757812500e+02,3.950199890136718750e+02,3.951000061035156250e+02,3.952500000000000000e+02,3.953699951171875000e+02,3.954700012207031250e+02,3.955299987792968750e+02,3.956400146484375000e+02,3.957099914550781250e+02,3.957699890136718750e+02,3.958099975585937500e+02,3.958699951171875000e+02,3.958699951171875000e+02,3.958999938964843750e+02,3.959200134277343750e+02,3.959700012207031250e+02,3.960299987792968750e+02,3.960899963378906250e+02,3.962300109863281250e+02,3.962900085449218750e+02,3.963399963378906250e+02,3.963200073242187500e+02,3.962300109863281250e+02,3.962200012207031250e+02,3.961199951171875000e+02,3.960400085449218750e+02,3.959700012207031250e+02,3.958500061035156250e+02,3.957000122070312500e+02,3.955799865722656250e+02,3.954899902343750000e+02,3.953999938964843750e+02,3.953099975585937500e+02,3.951799926757812500e+02,3.951700134277343750e+02,3.949899902343750000e+02,3.948500061035156250e+02,3.946799926757812500e+02,3.945700073242187500e+02,3.945599975585937500e+02,3.944100036621093750e+02,3.942799987792968750e+02,3.940499877929687500e+02,3.939899902343750000e+02,3.937999877929687500e+02,3.936199951171875000e+02,3.935100097656250000e+02,3.935000000000000000e+02,3.934100036621093750e+02,3.933699951171875000e+02,3.933800048828125000e+02,3.931099853515625000e+02,3.929400024414062500e+02,3.928800048828125000e+02,3.927300109863281250e+02,3.927300109863281250e+02,3.925899963378906250e+02,3.925299987792968750e+02,3.925000000000000000e+02,3.924200134277343750e+02,3.923500061035156250e+02,3.922300109863281250e+02,3.921300048828125000e+02,3.919299926757812500e+02,3.920000000000000000e+02,3.921400146484375000e+02,3.922300109863281250e+02,3.922999877929687500e+02,3.923900146484375000e+02,3.925000000000000000e+02,3.926600036621093750e+02,3.927999877929687500e+02,3.930199890136718750e+02,3.931799926757812500e+02,3.933200073242187500e+02,3.935799865722656250e+02,3.937699890136718750e+02,3.939899902343750000e+02,3.943099975585937500e+02,3.943800048828125000e+02
3.962300109863281250e+02,3.964400024414062500e+02,3.965199890136718750e+02,3.966600036621093750e+02,3.967999877929687500e+02,3.967999877929687500e+02,3.967099914550781250e+02,3.966499938964843750e+02,3.966499938964843750e+02,3.969500122070312500e+02,3.970799865722656250e+02,3.956799926757812500e+02,3.957099914550781250e+02,3.955100097656250000e+02,3.953800048828125000e+02,3.952799987792968750e+02,3.952600097656250000e+02,3.952000122070312500e+02,3.951499938964843750e+02,3.951199951171875000e+02,3.950799865722656250e+02,3.951099853515625000e+02,3.950499877929687500e+02,3.950799865722656250e+02,3.951000061035156250e+02,3.951300048828125000e+02,3.952099914550781250e+02,3.952699890136718750e+02,3.952500000000000000e+02,3.952799987792968750e+02,3.951900024414062500e+02,3.951300048828125000e+02,3.950700073242187500e+02,3.950000000000000000e+02,3.949200134277343750e+02,3.948500061035156250e+02,3.948299865722656250e+02,3.948399963378906250e+02,3.948500061035156250e+02,3.948699951171875000e+02,3.949400024414062500e+02,3.950599975585937500e+02,3.951499938964843750e+02,3.952699890136718750e+02,3.953999938964843750e+02,3.954700012207031250e+02,3.955299987792968750e+02,3.956000061035156250e+02,3.957099914550781250e+02,3.957099914550781250e+02,3.958099975585937500e+02,3.958299865722656250e+02,3.957699890136718750e+02,3.957900085449218750e+02,3.958699951171875000e+02,3.959800109863281250e+02,3.961000061035156250e+02,3.962099914550781250e+02,3.962600097656250000e+02,3.963200073242187500e+02,3.962900085449218750e+02,3.962500000000000000e+02,3.962000122070312500e+02,3.960899963378906250e+02,3.960899963378906250e+02,3.959700012207031250e+02,3.958500061035156250e+02,3.956900024414062500e+02,3.955499877929687500e+02,3.955199890136718750e+02,3.953999938964843750e+02,3.953599853515625000e+02,3.952200012207031250e+02,3.951400146484375000e+02,3.949899902343750000e+02,3.948200073242187500e+02,3.947099914550781250e+02,3.946199951171875000e+02,3.944800109863281250e+02,3.944100036621093750e+02,3.942999877929687500e+02,3.940799865722656250e+02,3.938999938964843750e+02,3.937699890136718750e+02,3.936400146484375000e+02,3.935599975585937500e+02,3.935299987792968750e+02,3.934899902343750000e+02,3.934400024414062500e+02,3.934200134277343750e+02,3.932200012207031250e+02,3.931199951171875000e+02,3.929400024414062500e+02,3.928399963378906250e+02,3.928200073242187500e+02,3.927500000000000000e+02,3.926099853515625000e+02,3.925700073242187500e+02,3.925000000000000000e+02,3.923800048828125000e+02,3.923200073242187500e+02,3.921799926757812500e+02,3.921199951171875000e+02,3.919899902343750000e+02,3.919899902343750000e+02,3.920799865722656250e+02,3.921900024414062500e+02,3.923500061035156250e+02,3.924400024414062500e+02,3.925199890136718750e+02,3.926799926757812500e+02,3.928399963378906250e+02,3.930000000000000000e+02,3.931600036621093750e+02,3.933800048828125000e+02,3.936799926757812500e+02,3.938500061035156250e+02,3.941300048828125000e+02,3.942699890136718750e+02
3.963900146484375000e+02,3.964700012207031250e+02,3.966499938964843750e+02,3.967999877929687500e+02,3.969200134277343750e+02,3.970499877929687500e+02,3.969599914550781250e+02,3.968599853515625000e+02,3.968399963378906250e+02,3.962000122070312500e+02,3.972300109863281250e+02,3.957900085449218750e+02,3.959500122070312500e+02,3.958200073242187500e+02,3.957099914550781250e+02,3.955400085449218750e+02,3.954700012207031250e+02,3.954299926757812500e+02,3.953299865722656250e+02,3.951900024414062500e+02,3.951099853515625000e+02,3.951199951171875000e+02,3.951499938964843750e+02,3.951700134277343750e+02,3.952200012207031250e+02,3.952399902343750000e+02,3.952699890136718750e+02,3.953299865722656250e+02,3.953500061035156250e+02,3.953299865722656250e+02,3.952699890136718750e+02,3.952699890136718750e+02,3.951900024414062500e+02,3.950499877929687500e+02,3.950100097656250000e+02,3.949400024414062500e+02,3.949100036621093750e+02,3.948900146484375000e+02,3.949100036621093750e+02,3.949299926757812500e+02,3.949400024414062500e+02,3.950199890136718750e+02,3.951300048828125000e+02,3.951900024414062500e+02,3.952500000000000000e+02,3.953500061035156250e+02,3.954599914550781250e+02,3.954599914550781250e+02,3.955899963378906250e+02,3.956199951171875000e+02,3.957200012207031250e+02,3.957600097656250000e+02,3.957600097656250000e+02,3.957600097656250000e+02,3.958699951171875000e+02,3.959400024414062500e+02,3.960299987792968750e+02,3.960899963378906250e+02,3.962200012207031250e+02,3.962900085449218750e+02,3.962999877929687500e+02,3.962699890136718750e+02,3.962399902343750000e+02,3.961600036621093750e+02,3.961000061035156250e+02,3.959800109863281250e+02,3.958500061035156250e+02,3.957399902343750000e+02,3.955799865722656250e+02,3.955100097656250000e+02,3.954100036621093750e+02,3.952999877929687500e+02,3.951600036621093750e+02,3.951000061035156250e+02,3.949599914550781250e+02,3.948500061035156250e+02,3.947399902343750000e+02,3.945799865722656250e+02,3.945000000000000000e+02,3.943299865722656250e+02,3.942300109863281250e+02,3.940799865722656250e+02,3.939299926757812500e+02,3.938200073242187500e+02,3.937500000000000000e+02,3.935799865722656250e+02,3.935700073242187500e+02,3.935899963378906250e+02,3.935100097656250000e+02,3.934599914550781250e+02,3.933399963378906250e+02,3.932399902343750000e+02,3.931300048828125000e+02,3.929700012207031250e+02,3.929400024414062500e+02,3.929299926757812500e+02,3.928200073242187500e+02,3.927099914550781250e+02,3.925000000000000000e+02,3.923399963378906250e+02,3.923099975585937500e+02,3.921700134277343750e+02,3.920700073242187500e+02,3.919500122070312500e+02,3.919400024414062500e+02,3.919800109863281250e+02,3.920400085449218750e+02,3.920899963378906250e+02,3.922699890136718750e+02,3.923500061035156250e+02,3.925000000000000000e+02,3.926799926757812500e+02,3.928399963378906250e+02,3.930100097656250000e+02,3.932500000000000000e+02,3.934100036621093750e+02,3.936799926757812500e+02,3.939299926757812500e+02,3.941400146484375000e+02
3.965100097656250000e+02,3.965199890136718750e+02,3.965499877929687500e+02,3.970599975585937500e+02,3.972200012207031250e+02,3.971900024414062500e+02,3.972000122070312500e+02,3.971499938964843750e+02,3.970400085449218750e+02,3.963500061035156250e+02,3.973500061035156250e+02,3.959700012207031250e+02,3.961499938964843750e+02,3.960499877929687500e+02,3.959500122070312500e+02,3.957500000000000000e+02,3.956400146484375000e+02,3.955700073242187500e+02,3.954299926757812500e+02,3.952799987792968750e+02,3.952099914550781250e+02,3.952200012207031250e+02,3.952600097656250000e+02,3.952200012207031250e+02,3.953599853515625000e+02,3.953500061035156250e+02,3.953900146484375000e+02,3.953599853515625000e+02,3.953699951171875000e+02,3.954299926757812500e+02,3.953999938964843750e+02,3.952900085449218750e+02,3.952799987792968750e+02,3.951400146484375000e+02,3.950599975585937500e+02,3.949400024414062500e+02,3.949500122070312500e+02,3.949299926757812500e+02,3.948999938964843750e+02,3.949100036621093750e+02,3.949800109863281250e+02,3.949899902343750000e+02,3.950599975585937500e+02,3.951799926757812500e+02,3.952099914550781250e+02,3.953399963378906250e+02,3.953999938964843750e+02,3.954200134277343750e+02,3.955199890136718750e+02,3.955700073242187500e+02,3.956400146484375000e+02,3.957300109863281250e+02,3.957399902343750000e+02,3.957900085449218750e+02,3.958099975585937500e+02,3.958900146484375000e+02,3.959500122070312500e+02,3.960299987792968750e+02,3.961300048828125000e+02,3.962300109863281250e+02,3.962699890136718750e+02,3.962999877929687500e+02,3.962999877929687500e+02,3.962200012207031250e+02,3.961400146484375000e+02,3.961300048828125000e+02,3.959899902343750000e+02,3.957999877929687500e+02,3.956700134277343750e+02,3.955000000000000000e+02,3.954100036621093750e+02,3.953299865722656250e+02,3.951900024414062500e+02,3.951199951171875000e+02,3.949599914550781250e+02,3.948299865722656250e+02,3.947600097656250000e+02,3.946199951171875000e+02,3.945000000000000000e+02,3.943699951171875000e+02,3.941799926757812500e+02,3.940899963378906250e+02,3.940000000000000000e+02,3.938599853515625000e+02,3.937699890136718750e+02,3.936700134277343750e+02,3.936400146484375000e+02,3.937300109863281250e+02,3.937300109863281250e+02,3.936300048828125000e+02,3.934400024414062500e+02,3.934100036621093750e+02,3.932099914550781250e+02,3.931099853515625000e+02,3.931000061035156250e+02,3.931000061035156250e+02,3.929200134277343750e+02,3.928200073242187500e+02,3.926799926757812500e+02,3.925000000000000000e+02,3.922999877929687500e+02,3.922600097656250000e+02,3.920400085449218750e+02,3.919899902343750000e+02,3.919299926757812500e+02,3.918399963378906250e+02,3.920299987792968750e+02,3.922000122070312500e+02,3.922399902343750000e+02,3.923399963378906250e+02,3.923699951171875000e+02,3.926099853515625000e+02,3.927399902343750000e+02,3.929299926757812500e+02,3.930899963378906250e+02,3.933200073242187500e+02,3.935499877929687500e+02,3.937600097656250000e+02,3.939299926757812500e+02
3.965499877929687500e+02,3.965100097656250000e+02,3.966900024414062500e+02,3.973900146484375000e+02,3.971900024414062500e+02,3.972600097656250000e+02,3.974100036621093750e+02,3.972099914550781250e+02,3.972999877929687500e+02,3.964700012207031250e+02,3.974100036621093750e+02,3.962600097656250000e+02,3.964500122070312500e+02,3.962900085449218750e+02,3.961600036621093750e+02,3.960499877929687500e+02,3.959100036621093750e+02,3.957799987792968750e+02,3.956000061035156250e+02,3.954500122070312500e+02,3.953399963378906250e+02,3.953200073242187500e+02,3.953800048828125000e+02,3.953699951171875000e+02,3.955299987792968750e+02,3.954800109863281250e+02,3.955000000000000000e+02,3.954500122070312500e+02,3.954599914550781250e+02,3.954500122070312500e+02,3.954200134277343750e+02,3.953399963378906250e+02,3.953399963378906250e+02,3.953099975585937500e+02,3.951300048828125000e+02,3.950700073242187500e+02,3.950100097656250000e+02,3.950100097656250000e+02,3.949899902343750000e+02,3.950299987792968750e+02,3.950700073242187500e+02,3.950499877929687500e+02,3.951700134277343750e+02,3.952500000000000000e+02,3.952699890136718750e+02,3.954400024414062500e+02,3.954100036621093750e+02,3.954800109863281250e+02,3.955100097656250000e+02,3.955799865722656250e+02,3.956600036621093750e+02,3.957600097656250000e+02,3.958500061035156250e+02,3.958699951171875000e+02,3.958599853515625000e+02,3.959500122070312500e+02,3.960299987792968750e+02,3.960700073242187500e+02,3.960700073242187500e+02,3.962099914550781250e+02,3.963099975585937500e+02,3.962999877929687500e+02,3.963900146484375000e+02,3.964400024414062500e+02,3.963299865722656250e+02,3.963399963378906250e+02,3.964200134277343750e+02,3.961700134277343750e+02,3.961199951171875000e+02,3.956099853515625000e+02,3.955199890136718750e+02,3.953699951171875000e+02,3.952399902343750000e+02,3.951499938964843750e+02,3.949700012207031250e+02,3.948599853515625000e+02,3.947699890136718750e+02,3.946799926757812500e+02,3.945700073242187500e+02,3.944100036621093750e+02,3.942699890136718750e+02,3.942699890136718750e+02,3.941300048828125000e+02,3.940400085449218750e+02,3.938900146484375000e+02,3.938399963378906250e+02,3.937999877929687500e+02,3.938800048828125000e+02,3.937600097656250000e+02,3.936799926757812500e+02,3.936400146484375000e+02,3.935299987792968750e+02,3.934299926757812500e+02,3.933299865722656250e+02,3.932999877929687500e+02,3.932000122070312500e+02,3.930599975585937500e+02,3.929100036621093750e+02,3.927200012207031250e+02,3.925299987792968750e+02,3.923500061035156250e+02,3.922799987792968750e+02,3.921700134277343750e+02,3.921000061035156250e+02,3.919800109863281250e+02,3.918099975585937500e+02,3.919299926757812500e+02,3.919700012207031250e+02,3.921799926757812500e+02,3.923500061035156250e+02,3.923299865722656250e+02,3.925000000000000000e+02,3.926700134277343750e+02,3.928200073242187500e+02,3.930799865722656250e+02,3.932799987792968750e+02,3.934299926757812500e+02,3.937200012207031250e+02,3.938999938964843750e+02
3.965899963378906250e+02,3.966099853515625000e+02,3.967799987792968750e+02,3.971700134277343750e+02,3.973200073242187500e+02,3.973099975585937500e+02,3.974599914550781250e+02,3.974299926757812500e+02,3.973999938964843750e+02,3.968200073242187500e+02,3.975899963378906250e+02,3.968599853515625000e+02,3.967399902343750000e+02,3.965000000000000000e+02,3.963900146484375000e+02,3.962099914550781250e+02,3.960599975585937500e+02,3.959100036621093750e+02,3.957300109863281250e+02,3.955599975585937500e+02,3.954899902343750000e+02,3.954500122070312500e+02,3.954800109863281250e+02,3.954899902343750000e+02,3.955000000000000000e+02,3.955000000000000000e+02,3.954500122070312500e+02,3.953999938964843750e+02,3.953999938964843750e+02,3.953900146484375000e+02,3.953299865722656250e+02,3.953099975585937500e+02,3.952699890136718750e+02,3.952399902343750000e+02,3.951400146484375000e+02,3.951099853515625000e+02,3.950799865722656250e+02,3.950400085449218750e+02,3.950400085449218750e+02,3.950299987792968750e+02,3.950899963378906250e+02,3.951199951171875000e+02,3.951300048828125000e+02,3.951799926757812500e+02,3.952999877929687500e+02,3.953500061035156250e+02,3.953900146484375000e+02,3.953699951171875000e+02,3.954400024414062500e+02,3.954400024414062500e+02,3.955599975585937500e+02,3.956499938964843750e+02,3.957500000000000000e+02,3.957399902343750000e+02,3.958800048828125000e+02,3.958800048828125000e+02,3.958999938964843750e+02,3.960100097656250000e+02,3.960599975585937500e+02,3.961099853515625000e+02,3.962200012207031250e+02,3.962500000000000000e+02,3.961900024414062500e+02,3.965000000000000000e+02,3.965199890136718750e+02,3.965100097656250000e+02,3.964100036621093750e+02,3.963699951171875000e+02,3.962399902343750000e+02,3.960199890136718750e+02,3.958800048828125000e+02,3.957300109863281250e+02,3.954899902343750000e+02,3.953699951171875000e+02,3.952900085449218750e+02,3.952099914550781250e+02,3.950400085449218750e+02,3.948900146484375000e+02,3.946799926757812500e+02,3.946400146484375000e+02,3.945400085449218750e+02,3.945299987792968750e+02,3.943599853515625000e+02,3.942799987792968750e+02,3.940799865722656250e+02,3.940400085449218750e+02,3.939500122070312500e+02,3.939500122070312500e+02,3.939599914550781250e+02,3.938800048828125000e+02,3.938299865722656250e+02,3.937999877929687500e+02,3.936700134277343750e+02,3.935199890136718750e+02,3.933399963378906250e+02,3.932500000000000000e+02,3.930499877929687500e+02,3.929500122070312500e+02,3.927699890136718750e+02,3.926000061035156250e+02,3.924700012207031250e+02,3.922999877929687500e+02,3.921499938964843750e+02,3.920799865722656250e+02,3.920299987792968750e+02,3.917900085449218750e+02,3.917999877929687500e+02,3.918500061035156250e+02,3.919700012207031250e+02,3.920199890136718750e+02,3.921199951171875000e+02,3.923699951171875000e+02,3.924400024414062500e+02,3.925899963378906250e+02,3.928999938964843750e+02,3.929899902343750000e+02,3.932699890136718750e+02,3.935199890136718750e+02,3.936099853515625000e+02
3.963699951171875000e+02,3.965899963378906250e+02,3.968399963378906250e+02,3.969599914550781250e+02,3.970799865722656250e+02,3.971900024414062500e+02,3.974100036621093750e+02,3.973399963378906250e+02,3.973900146484375000e+02,3.968900146484375000e+02,3.975499877929687500e+02,3.966199951171875000e+02,3.967200012207031250e+02,3.964599914550781250e+02,3.963800048828125000e+02,3.962799987792968750e+02,3.961099853515625000e+02,3.960299987792968750e+02,3.957900085449218750e+02,3.957300109863281250e+02,3.956099853515625000e+02,3.956099853515625000e+02,3.955700073242187500e+02,3.955700073242187500e+02,3.955899963378906250e+02,3.955499877929687500e+02,3.955499877929687500e+02,3.954500122070312500e+02,3.953900146484375000e+02,3.953800048828125000e+02,3.953099975585937500e+02,3.953399963378906250e+02,3.952500000000000000e+02,3.952399902343750000e+02,3.951900024414062500e+02,3.951600036621093750e+02,3.951000061035156250e+02,3.950499877929687500e+02,3.950599975585937500e+02,3.950499877929687500e+02,3.950899963378906250e+02,3.951300048828125000e+02,3.951499938964843750e+02,3.951700134277343750e+02,3.952300109863281250e+02,3.952699890136718750e+02,3.952799987792968750e+02,3.954299926757812500e+02,3.954100036621093750e+02,3.953999938964843750e+02,3.954700012207031250e+02,3.956099853515625000e+02,3.956700134277343750e+02,3.957300109863281250e+02,3.958500061035156250e+02,3.958500061035156250e+02,3.959299926757812500e+02,3.959700012207031250e+02,3.960400085449218750e+02,3.960400085449218750e+02,3.961499938964843750e+02,3.962000122070312500e+02,3.961700134277343750e+02,3.965000000000000000e+02,3.964500122070312500e+02,3.964200134277343750e+02,3.964200134277343750e+02,3.962600097656250000e+02,3.962200012207031250e+02,3.960400085449218750e+02,3.960700073242187500e+02,3.957799987792968750e+02,3.954700012207031250e+02,3.954200134277343750e+02,3.954700012207031250e+02,3.952300109863281250e+02,3.951700134277343750e+02,3.951700134277343750e+02,3.949599914550781250e+02,3.948399963378906250e+02,3.948099975585937500e+02,3.947399902343750000e+02,3.947200012207031250e+02,3.945899963378906250e+02,3.946199951171875000e+02,3.942300109863281250e+02,3.941900024414062500e+02,3.941099853515625000e+02,3.941199951171875000e+02,3.939500122070312500e+02,3.939500122070312500e+02,3.937600097656250000e+02,3.936799926757812500e+02,3.935199890136718750e+02,3.933900146484375000e+02,3.933399963378906250e+02,3.931099853515625000e+02,3.929700012207031250e+02,3.928299865722656250e+02,3.925899963378906250e+02,3.924200134277343750e+02,3.923299865722656250e+02,3.922000122070312500e+02,3.920799865722656250e+02,3.919800109863281250e+02,3.918399963378906250e+02,3.919200134277343750e+02,3.917699890136718750e+02,3.918299865722656250e+02,3.919299926757812500e+02,3.920899963378906250e+02,3.921199951171875000e+02,3.924100036621093750e+02,3.924899902343750000e+02,3.927099914550781250e+02,3.930000000000000000e+02,3.930899963378906250e+02,3.933900146484375000e+02,3.934700012207031250e+02
3.963399963378906250e+02,3.966000061035156250e+02,3.968999938964843750e+02,3.970000000000000000e+02,3.971300048828125000e+02,3.971799926757812500e+02,3.974200134277343750e+02,3.973699951171875000e+02,3.973599853515625000e+02,3.974100036621093750e+02,3.975499877929687500e+02,3.966400146484375000e+02,3.967099914550781250e+02,3.965700073242187500e+02,3.964299926757812500e+02,3.963900146484375000e+02,3.962000122070312500e+02,3.961300048828125000e+02,3.959599914550781250e+02,3.958599853515625000e+02,3.957699890136718750e+02,3.957300109863281250e+02,3.957500000000000000e+02,3.957200012207031250e+02,3.957900085449218750e+02,3.957799987792968750e+02,3.957600097656250000e+02,3.956600036621093750e+02,3.955799865722656250e+02,3.954899902343750000e+02,3.954599914550781250e+02,3.954100036621093750e+02,3.953999938964843750e+02,3.953900146484375000e+02,3.953500061035156250e+02,3.953200073242187500e+02,3.952699890136718750e+02,3.952000122070312500e+02,3.951900024414062500e+02,3.951300048828125000e+02,3.951700134277343750e+02,3.952000122070312500e+02,3.952200012207031250e+02,3.952500000000000000e+02,3.952900085449218750e+02,3.953599853515625000e+02,3.953699951171875000e+02,3.953699951171875000e+02,3.954200134277343750e+02,3.954400024414062500e+02,3.955299987792968750e+02,3.956499938964843750e+02,3.957399902343750000e+02,3.957900085449218750e+02,3.958999938964843750e+02,3.959599914550781250e+02,3.959899902343750000e+02,3.960700073242187500e+02,3.961400146484375000e+02,3.961300048828125000e+02,3.961199951171875000e+02,3.961099853515625000e+02,3.961099853515625000e+02,3.962999877929687500e+02,3.962999877929687500e+02,3.963999938964843750e+02,3.962600097656250000e+02,3.962399902343750000e+02,3.961300048828125000e+02,3.960299987792968750e+02,3.960700073242187500e+02,3.958299865722656250e+02,3.956300048828125000e+02,3.956400146484375000e+02,3.956499938964843750e+02,3.954100036621093750e+02,3.952000122070312500e+02,3.951700134277343750e+02,3.950700073242187500e+02,3.951099853515625000e+02,3.950000000000000000e+02,3.949500122070312500e+02,3.948200073242187500e+02,3.947399902343750000e+02,3.963500061035156250e+02,3.957099914550781250e+02,3.954200134277343750e+02,3.943599853515625000e+02,3.941199951171875000e+02,3.941300048828125000e+02,3.939500122070312500e+02,3.938399963378906250e+02,3.936900024414062500e+02,3.935700073242187500e+02,3.935199890136718750e+02,3.934200134277343750e+02,3.931900024414062500e+02,3.929599914550781250e+02,3.927699890136718750e+02,3.926099853515625000e+02,3.924599914550781250e+02,3.923200073242187500e+02,3.921199951171875000e+02,3.920700073242187500e+02,3.920400085449218750e+02,3.918599853515625000e+02,3.918599853515625000e+02,3.917999877929687500e+02,3.916799926757812500e+02,3.918800048828125000e+02,3.918900146484375000e+02,3.920599975585937500e+02,3.922200012207031250e+02,3.924700012207031250e+02,3.926400146484375000e+02,3.927900085449218750e+02,3.929899902343750000e+02,3.931300048828125000e+02,3.932999877929687500e+02
3.964599914550781250e+02,3.966199951171875000e+02,3.968900146484375000e+02,3.970400085449218750e+02,3.971600036621093750e+02,3.971900024414062500e+02,3.973699951171875000e+02,3.972999877929687500e+02,3.971400146484375000e+02,3.968200073242187500e+02,3.974599914550781250e+02,3.965100097656250000e+02,3.967099914550781250e+02,3.965599975585937500e+02,3.965100097656250000e+02,3.964800109863281250e+02,3.963599853515625000e+02,3.962900085449218750e+02,3.962099914550781250e+02,3.961300048828125000e+02,3.960599975585937500e+02,3.960400085449218750e+02,3.961199951171875000e+02,3.961499938964843750e+02,3.961400146484375000e+02,3.961400146484375000e+02,3.960199890136718750e+02,3.959500122070312500e+02,3.957999877929687500e+02,3.957799987792968750e+02,3.956600036621093750e+02,3.956700134277343750e+02,3.956499938964843750e+02,3.955599975585937500e+02,3.955899963378906250e+02,3.955499877929687500e+02,3.955100097656250000e+02,3.954800109863281250e+02,3.954100036621093750e+02,3.953200073242187500e+02,3.952300109863281250e+02,3.953099975585937500e+02,3.952999877929687500e+02,3.953200073242187500e+02,3.953699951171875000e+02,3.954599914550781250e+02,3.954700012207031250e+02,3.954800109863281250e+02,3.955000000000000000e+02,3.955499877929687500e+02,3.956000061035156250e+02,3.957000122070312500e+02,3.957999877929687500e+02,3.958399963378906250e+02,3.959800109863281250e+02,3.959899902343750000e+02,3.960400085449218750e+02,3.961000061035156250e+02,3.961400146484375000e+02,3.961300048828125000e+02,3.961499938964843750e+02,3.961099853515625000e+02,3.960400085449218750e+02,3.963800048828125000e+02,3.961900024414062500e+02,3.962799987792968750e+02,3.960899963378906250e+02,3.960199890136718750e+02,3.960799865722656250e+02,3.960000000000000000e+02,3.959299926757812500e+02,3.958699951171875000e+02,3.957000122070312500e+02,3.956499938964843750e+02,3.955899963378906250e+02,3.954800109863281250e+02,3.954899902343750000e+02,3.953599853515625000e+02,3.952300109863281250e+02,3.951799926757812500e+02,3.951400146484375000e+02,3.950899963378906250e+02,3.950000000000000000e+02,3.950499877929687500e+02,3.965000000000000000e+02,3.959800109863281250e+02,3.953200073242187500e+02,3.946300048828125000e+02,3.943200073242187500e+02,3.939800109863281250e+02,3.942099914550781250e+02,3.940100097656250000e+02,3.937099914550781250e+02,3.936300048828125000e+02,3.935299987792968750e+02,3.934299926757812500e+02,3.931600036621093750e+02,3.929700012207031250e+02,3.928200073242187500e+02,3.925799865722656250e+02,3.925100097656250000e+02,3.923800048828125000e+02,3.921600036621093750e+02,3.921000061035156250e+02,3.920499877929687500e+02,3.919800109863281250e+02,3.918099975585937500e+02,3.917699890136718750e+02,3.916799926757812500e+02,3.916000061035156250e+02,3.917500000000000000e+02,3.918999938964843750e+02,3.920700073242187500e+02,3.922600097656250000e+02,3.923999938964843750e+02,3.924899902343750000e+02,3.926700134277343750e+02,3.928599853515625000e+02,3.929299926757812500e+02
3.964700012207031250e+02,3.967399902343750000e+02,3.969299926757812500e+02,3.970400085449218750e+02,3.971400146484375000e+02,3.971000061035156250e+02,3.970799865722656250e+02,3.972699890136718750e+02,3.970599975585937500e+02,3.967699890136718750e+02,3.973399963378906250e+02,3.963399963378906250e+02,3.966799926757812500e+02,3.966099853515625000e+02,3.965499877929687500e+02,3.965199890136718750e+02,3.964700012207031250e+02,3.964299926757812500e+02,3.963900146484375000e+02,3.963500061035156250e+02,3.962900085449218750e+02,3.962600097656250000e+02,3.962999877929687500e+02,3.963200073242187500e+02,3.962699890136718750e+02,3.962999877929687500e+02,3.962099914550781250e+02,3.961300048828125000e+02,3.960499877929687500e+02,3.959899902343750000e+02,3.959500122070312500e+02,3.958800048828125000e+02,3.958399963378906250e+02,3.957699890136718750e+02,3.957500000000000000e+02,3.957799987792968750e+02,3.957200012207031250e+02,3.956799926757812500e+02,3.956300048828125000e+02,3.954800109863281250e+02,3.954100036621093750e+02,3.953800048828125000e+02,3.953800048828125000e+02,3.953900146484375000e+02,3.954899902343750000e+02,3.954899902343750000e+02,3.955799865722656250e+02,3.955700073242187500e+02,3.956799926757812500e+02,3.957099914550781250e+02,3.956900024414062500e+02,3.958200073242187500e+02,3.958299865722656250e+02,3.959500122070312500e+02,3.959700012207031250e+02,3.960599975585937500e+02,3.961099853515625000e+02,3.961400146484375000e+02,3.961600036621093750e+02,3.962000122070312500e+02,3.961300048828125000e+02,3.961499938964843750e+02,3.960799865722656250e+02,3.962099914550781250e+02,3.960499877929687500e+02,3.961700134277343750e+02,3.961400146484375000e+02,3.959299926757812500e+02,3.959500122070312500e+02,3.958699951171875000e+02,3.958500061035156250e+02,3.957999877929687500e+02,3.956600036621093750e+02,3.956799926757812500e+02,3.956600036621093750e+02,3.955499877929687500e+02,3.954500122070312500e+02,3.954800109863281250e+02,3.953200073242187500e+02,3.953200073242187500e+02,3.952600097656250000e+02,3.951099853515625000e+02,3.951099853515625000e+02,3.950000000000000000e+02,3.948500061035156250e+02,3.946799926757812500e+02,3.944899902343750000e+02,3.945599975585937500e+02,3.946400146484375000e+02,3.939599914550781250e+02,3.942000122070312500e+02,3.939899902343750000e+02,3.937999877929687500e+02,3.936400146484375000e+02,3.935000000000000000e+02,3.933699951171875000e+02,3.931499938964843750e+02,3.929700012207031250e+02,3.927300109863281250e+02,3.924899902343750000e+02,3.924299926757812500e+02,3.924599914550781250e+02,3.922699890136718750e+02,3.921300048828125000e+02,3.920700073242187500e+02,3.918999938964843750e+02,3.918399963378906250e+02,3.917799987792968750e+02,3.916499938964843750e+02,3.916199951171875000e+02,3.916099853515625000e+02,3.917699890136718750e+02,3.918800048828125000e+02,3.920899963378906250e+02,3.922200012207031250e+02,3.923699951171875000e+02,3.925000000000000000e+02,3.926400146484375000e+02,3.927699890136718750e+02
3.965599975585937500e+02,3.968800048828125000e+02,3.970000000000000000e+02,3.970199890136718750e+02,3.969200134277343750e+02,3.969299926757812500e+02,3.970000000000000000e+02,3.968800048828125000e+02,3.968200073242187500e+02,3.967699890136718750e+02,3.972399902343750000e+02,3.963200073242187500e+02,3.966099853515625000e+02,3.965700073242187500e+02,3.965599975585937500e+02,3.964800109863281250e+02,3.965199890136718750e+02,3.965100097656250000e+02,3.965199890136718750e+02,3.964700012207031250e+02,3.964400024414062500e+02,3.964100036621093750e+02,3.964299926757812500e+02,3.964700012207031250e+02,3.964700012207031250e+02,3.964599914550781250e+02,3.964100036621093750e+02,3.963599853515625000e+02,3.962999877929687500e+02,3.962399902343750000e+02,3.962000122070312500e+02,3.960899963378906250e+02,3.959700012207031250e+02,3.959100036621093750e+02,3.959100036621093750e+02,3.958800048828125000e+02,3.958800048828125000e+02,3.958299865722656250e+02,3.957600097656250000e+02,3.956300048828125000e+02,3.955199890136718750e+02,3.954800109863281250e+02,3.955000000000000000e+02,3.954899902343750000e+02,3.955599975585937500e+02,3.956199951171875000e+02,3.956499938964843750e+02,3.956799926757812500e+02,3.957699890136718750e+02,3.958200073242187500e+02,3.959100036621093750e+02,3.959899902343750000e+02,3.959700012207031250e+02,3.959500122070312500e+02,3.960000000000000000e+02,3.960899963378906250e+02,3.961600036621093750e+02,3.961300048828125000e+02,3.962000122070312500e+02,3.961900024414062500e+02,3.961099853515625000e+02,3.960599975585937500e+02,3.960899963378906250e+02,3.960499877929687500e+02,3.960299987792968750e+02,3.960199890136718750e+02,3.959299926757812500e+02,3.958599853515625000e+02,3.958500061035156250e+02,3.957600097656250000e+02,3.957600097656250000e+02,3.957000122070312500e+02,3.956199951171875000e+02,3.956300048828125000e+02,3.956000061035156250e+02,3.955299987792968750e+02,3.955100097656250000e+02,3.954500122070312500e+02,3.953699951171875000e+02,3.954100036621093750e+02,3.952799987792968750e+02,3.951900024414062500e+02,3.950899963378906250e+02,3.950100097656250000e+02,3.948200073242187500e+02,3.948099975585937500e+02,3.947300109863281250e+02,3.945499877929687500e+02,3.945199890136718750e+02,3.940100097656250000e+02,3.942300109863281250e+02,3.940899963378906250e+02,3.938099975585937500e+02,3.936900024414062500e+02,3.935899963378906250e+02,3.934100036621093750e+02,3.931600036621093750e+02,3.930400085449218750e+02,3.928200073242187500e+02,3.926499938964843750e+02,3.924700012207031250e+02,3.924599914550781250e+02,3.923599853515625000e+02,3.922000122070312500e+02,3.920899963378906250e+02,3.919899902343750000e+02,3.918500061035156250e+02,3.918299865722656250e+02,3.917099914550781250e+02,3.915899963378906250e+02,3.915899963378906250e+02,3.917500000000000000e+02,3.917600097656250000e+02,3.919400024414062500e+02,3.920199890136718750e+02,3.922600097656250000e+02,3.923099975585937500e+02,3.924400024414062500e+02,3.925100097656250000e+02
3.966300048828125000e+02,3.968800048828125000e+02,3.969800109863281250e+02,3.969500122070312500e+02,3.966600036621093750e+02,3.967600097656250000e+02,3.967000122070312500e+02,3.966000061035156250e+02,3.966600036621093750e+02,3.964500122070312500e+02,3.971400146484375000e+02,3.961600036621093750e+02,3.965700073242187500e+02,3.965000000000000000e+02,3.965400085449218750e+02,3.965899963378906250e+02,3.965799865722656250e+02,3.965899963378906250e+02,3.965799865722656250e+02,3.965499877929687500e+02,3.965400085449218750e+02,3.966000061035156250e+02,3.966400146484375000e+02,3.967399902343750000e+02,3.967099914550781250e+02,3.967500000000000000e+02,3.966600036621093750e+02,3.966000061035156250e+02,3.965400085449218750e+02,3.965299987792968750e+02,3.963800048828125000e+02,3.962900085449218750e+02,3.962399902343750000e+02,3.961600036621093750e+02,3.961799926757812500e+02,3.961400146484375000e+02,3.960499877929687500e+02,3.959400024414062500e+02,3.958999938964843750e+02,3.957900085449218750e+02,3.957500000000000000e+02,3.957500000000000000e+02,3.956900024414062500e+02,3.957000122070312500e+02,3.956799926757812500e+02,3.956799926757812500e+02,3.957999877929687500e+02,3.958200073242187500e+02,3.958699951171875000e+02,3.959700012207031250e+02,3.960599975585937500e+02,3.961099853515625000e+02,3.960100097656250000e+02,3.961499938964843750e+02,3.961400146484375000e+02,3.962300109863281250e+02,3.962200012207031250e+02,3.962600097656250000e+02,3.962500000000000000e+02,3.962200012207031250e+02,3.962099914550781250e+02,3.961499938964843750e+02,3.961099853515625000e+02,3.960400085449218750e+02,3.958599853515625000e+02,3.958999938964843750e+02,3.958599853515625000e+02,3.956499938964843750e+02,3.955700073242187500e+02,3.954599914550781250e+02,3.955499877929687500e+02,3.955199890136718750e+02,3.954400024414062500e+02,3.954700012207031250e+02,3.954700012207031250e+02,3.954100036621093750e+02,3.955000000000000000e+02,3.954500122070312500e+02,3.953299865722656250e+02,3.951900024414062500e+02,3.952200012207031250e+02,3.950899963378906250e+02,3.949800109863281250e+02,3.949400024414062500e+02,3.948800048828125000e+02,3.947999877929687500e+02,3.947399902343750000e+02,3.946199951171875000e+02,3.945499877929687500e+02,3.938599853515625000e+02,3.942399902343750000e+02,3.941300048828125000e+02,3.938099975585937500e+02,3.935899963378906250e+02,3.934700012207031250e+02,3.933299865722656250e+02,3.931400146484375000e+02,3.930299987792968750e+02,3.929500122070312500e+02,3.927600097656250000e+02,3.926199951171875000e+02,3.925499877929687500e+02,3.923299865722656250e+02,3.922399902343750000e+02,3.921199951171875000e+02,3.919299926757812500e+02,3.918699951171875000e+02,3.917699890136718750e+02,3.916099853515625000e+02,3.915400085449218750e+02,3.915700073242187500e+02,3.915199890136718750e+02,3.916499938964843750e+02,3.917799987792968750e+02,3.918999938964843750e+02,3.920299987792968750e+02,3.921099853515625000e+02,3.922099914550781250e+02,3.923299865722656250e+02
3.967200012207031250e+02,3.968999938964843750e+02,3.970000000000000000e+02,3.971300048828125000e+02,3.965599975585937500e+02,3.964800109863281250e+02,3.965400085449218750e+02,3.964500122070312500e+02,3.965799865722656250e+02,3.962900085449218750e+02,3.970499877929687500e+02,3.960899963378906250e+02,3.966000061035156250e+02,3.965499877929687500e+02,3.965700073242187500e+02,3.966300048828125000e+02,3.966799926757812500e+02,3.966700134277343750e+02,3.966300048828125000e+02,3.966799926757812500e+02,3.966900024414062500e+02,3.967500000000000000e+02,3.968399963378906250e+02,3.968599853515625000e+02,3.969800109863281250e+02,3.969400024414062500e+02,3.969299926757812500e+02,3.968299865722656250e+02,3.968099975585937500e+02,3.967399902343750000e+02,3.966199951171875000e+02,3.965400085449218750e+02,3.964599914550781250e+02,3.963599853515625000e+02,3.963399963378906250e+02,3.962799987792968750e+02,3.962000122070312500e+02,3.960700073242187500e+02,3.960299987792968750e+02,3.959700012207031250e+02,3.959200134277343750e+02,3.958699951171875000e+02,3.958699951171875000e+02,3.958200073242187500e+02,3.958200073242187500e+02,3.958500061035156250e+02,3.958999938964843750e+02,3.959599914550781250e+02,3.959700012207031250e+02,3.960499877929687500e+02,3.960599975585937500e+02,3.961900024414062500e+02,3.962000122070312500e+02,3.962399902343750000e+02,3.962300109863281250e+02,3.962999877929687500e+02,3.963200073242187500e+02,3.963900146484375000e+02,3.963500061035156250e+02,3.963099975585937500e+02,3.962799987792968750e+02,3.961199951171875000e+02,3.960899963378906250e+02,3.959500122070312500e+02,3.958699951171875000e+02,3.956700134277343750e+02,3.955799865722656250e+02,3.954400024414062500e+02,3.953399963378906250e+02,3.954100036621093750e+02,3.952799987792968750e+02,3.953599853515625000e+02,3.953200073242187500e+02,3.952600097656250000e+02,3.954299926757812500e+02,3.952999877929687500e+02,3.952399902343750000e+02,3.952099914550781250e+02,3.952999877929687500e+02,3.951400146484375000e+02,3.952200012207031250e+02,3.949800109863281250e+02,3.949200134277343750e+02,3.950199890136718750e+02,3.948099975585937500e+02,3.947000122070312500e+02,3.947099914550781250e+02,3.945899963378906250e+02,3.945199890136718750e+02,3.939599914550781250e+02,3.943800048828125000e+02,3.941600036621093750e+02,3.938299865722656250e+02,3.935899963378906250e+02,3.934800109863281250e+02,3.932999877929687500e+02,3.932099914550781250e+02,3.930100097656250000e+02,3.929400024414062500e+02,3.927799987792968750e+02,3.926700134277343750e+02,3.925499877929687500e+02,3.925100097656250000e+02,3.922799987792968750e+02,3.922000122070312500e+02,3.919700012207031250e+02,3.918999938964843750e+02,3.918299865722656250e+02,3.916099853515625000e+02,3.915199890136718750e+02,3.915299987792968750e+02,3.914800109863281250e+02,3.915799865722656250e+02,3.916799926757812500e+02,3.917699890136718750e+02,3.918900146484375000e+02,3.920199890136718750e+02,3.920700073242187500e+02,3.920799865722656250e+02
3.966000061035156250e+02,3.965899963378906250e+02,3.966499938964843750e+02,3.967000122070312500e+02,3.964599914550781250e+02,3.962200012207031250e+02,3.964200134277343750e+02,3.963299865722656250e+02,3.964200134277343750e+02,3.961799926757812500e+02,3.970599975585937500e+02,3.960000000000000000e+02,3.966199951171875000e+02,3.965799865722656250e+02,3.965700073242187500e+02,3.965700073242187500e+02,3.965899963378906250e+02,3.966000061035156250e+02,3.966199951171875000e+02,3.966400146484375000e+02,3.967099914550781250e+02,3.968399963378906250e+02,3.968800048828125000e+02,3.969800109863281250e+02,3.970199890136718750e+02,3.970799865722656250e+02,3.970799865722656250e+02,3.969200134277343750e+02,3.968800048828125000e+02,3.967799987792968750e+02,3.966099853515625000e+02,3.965700073242187500e+02,3.964899902343750000e+02,3.964599914550781250e+02,3.963800048828125000e+02,3.963299865722656250e+02,3.962300109863281250e+02,3.962099914550781250e+02,3.961199951171875000e+02,3.961099853515625000e+02,3.960199890136718750e+02,3.959400024414062500e+02,3.959400024414062500e+02,3.958699951171875000e+02,3.958699951171875000e+02,3.959200134277343750e+02,3.959200134277343750e+02,3.959400024414062500e+02,3.959899902343750000e+02,3.959899902343750000e+02,3.961300048828125000e+02,3.961499938964843750e+02,3.962500000000000000e+02,3.962000122070312500e+02,3.962799987792968750e+02,3.962900085449218750e+02,3.963699951171875000e+02,3.963299865722656250e+02,3.962999877929687500e+02,3.963099975585937500e+02,3.962399902343750000e+02,3.961300048828125000e+02,3.960299987792968750e+02,3.960599975585937500e+02,3.958900146484375000e+02,3.957200012207031250e+02,3.955299987792968750e+02,3.953299865722656250e+02,3.951600036621093750e+02,3.951300048828125000e+02,3.952999877929687500e+02,3.953299865722656250e+02,3.951000061035156250e+02,3.950899963378906250e+02,3.950400085449218750e+02,3.950199890136718750e+02,3.949899902343750000e+02,3.949299926757812500e+02,3.950199890136718750e+02,3.949500122070312500e+02,3.949500122070312500e+02,3.949200134277343750e+02,3.948299865722656250e+02,3.947099914550781250e+02,3.946499938964843750e+02,3.945899963378906250e+02,3.946000061035156250e+02,3.945299987792968750e+02,3.944400024414062500e+02,3.939299926757812500e+02,3.945199890136718750e+02,3.942099914550781250e+02,3.938800048828125000e+02,3.936199951171875000e+02,3.935100097656250000e+02,3.932999877929687500e+02,3.931600036621093750e+02,3.930899963378906250e+02,3.929500122070312500e+02,3.928800048828125000e+02,3.927500000000000000e+02,3.927200012207031250e+02,3.925899963378906250e+02,3.924299926757812500e+02,3.922099914550781250e+02,3.920899963378906250e+02,3.918900146484375000e+02,3.917999877929687500e+02,3.916499938964843750e+02,3.915499877929687500e+02,3.915000000000000000e+02,3.914700012207031250e+02,3.915100097656250000e+02,3.915599975585937500e+02,3.916799926757812500e+02,3.917300109863281250e+02,3.918599853515625000e+02,3.919700012207031250e+02,3.920799865722656250e+02
3.962399902343750000e+02,3.963699951171875000e+02,3.963999938964843750e+02,3.963800048828125000e+02,3.962600097656250000e+02,3.959899902343750000e+02,3.962200012207031250e+02,3.962000122070312500e+02,3.963699951171875000e+02,3.961700134277343750e+02,3.969299926757812500e+02,3.958999938964843750e+02,3.966499938964843750e+02,3.965899963378906250e+02,3.966499938964843750e+02,3.966000061035156250e+02,3.965100097656250000e+02,3.965499877929687500e+02,3.966300048828125000e+02,3.967099914550781250e+02,3.967699890136718750e+02,3.968500061035156250e+02,3.969599914550781250e+02,3.969899902343750000e+02,3.970499877929687500e+02,3.970899963378906250e+02,3.970700073242187500e+02,3.970000000000000000e+02,3.969100036621093750e+02,3.968099975585937500e+02,3.967399902343750000e+02,3.966600036621093750e+02,3.966300048828125000e+02,3.965899963378906250e+02,3.965400085449218750e+02,3.965199890136718750e+02,3.963999938964843750e+02,3.963800048828125000e+02,3.963500061035156250e+02,3.962799987792968750e+02,3.961799926757812500e+02,3.961199951171875000e+02,3.960599975585937500e+02,3.960100097656250000e+02,3.959800109863281250e+02,3.959800109863281250e+02,3.960100097656250000e+02,3.960299987792968750e+02,3.961099853515625000e+02,3.961300048828125000e+02,3.962699890136718750e+02,3.962999877929687500e+02,3.963200073242187500e+02,3.963099975585937500e+02,3.963900146484375000e+02,3.964299926757812500e+02,3.963699951171875000e+02,3.963399963378906250e+02,3.962999877929687500e+02,3.961900024414062500e+02,3.961199951171875000e+02,3.960100097656250000e+02,3.959500122070312500e+02,3.959899902343750000e+02,3.958299865722656250e+02,3.955799865722656250e+02,3.955899963378906250e+02,3.953399963378906250e+02,3.952200012207031250e+02,3.951199951171875000e+02,3.950100097656250000e+02,3.950400085449218750e+02,3.949400024414062500e+02,3.949299926757812500e+02,3.947099914550781250e+02,3.945599975585937500e+02,3.945299987792968750e+02,3.945299987792968750e+02,3.946900024414062500e+02,3.945599975585937500e+02,3.945700073242187500e+02,3.944800109863281250e+02,3.944599914550781250e+02,3.945000000000000000e+02,3.944400024414062500e+02,3.944700012207031250e+02,3.944800109863281250e+02,3.944700012207031250e+02,3.944100036621093750e+02,3.937999877929687500e+02,3.945599975585937500e+02,3.944299926757812500e+02,3.938999938964843750e+02,3.937099914550781250e+02,3.935599975585937500e+02,3.934200134277343750e+02,3.932799987792968750e+02,3.931199951171875000e+02,3.929400024414062500e+02,3.928900146484375000e+02,3.928099975585937500e+02,3.927999877929687500e+02,3.926400146484375000e+02,3.924800109863281250e+02,3.922699890136718750e+02,3.920700073242187500e+02,3.920499877929687500e+02,3.918999938964843750e+02,3.917399902343750000e+02,3.916300048828125000e+02,3.915100097656250000e+02,3.913599853515625000e+02,3.913599853515625000e+02,3.914200134277343750e+02,3.915299987792968750e+02,3.916199951171875000e+02,3.917900085449218750e+02,3.918900146484375000e+02,3.918099975585937500e+02
3.961400146484375000e+02,3.961900024414062500e+02,3.965299987792968750e+02,3.962300109863281250e+02,3.960400085449218750e+02,3.960599975585937500e+02,3.962000122070312500e+02,3.961600036621093750e+02,3.962900085449218750e+02,3.962099914550781250e+02,3.968399963378906250e+02,3.959200134277343750e+02,3.967000122070312500e+02,3.966199951171875000e+02,3.966400146484375000e+02,3.966199951171875000e+02,3.965899963378906250e+02,3.965599975585937500e+02,3.966400146484375000e+02,3.967300109863281250e+02,3.967699890136718750e+02,3.968599853515625000e+02,3.969899902343750000e+02,3.970499877929687500e+02,3.970700073242187500e+02,3.970899963378906250e+02,3.971000061035156250e+02,3.969800109863281250e+02,3.969500122070312500e+02,3.968900146484375000e+02,3.967999877929687500e+02,3.967200012207031250e+02,3.966600036621093750e+02,3.966099853515625000e+02,3.966700134277343750e+02,3.965799865722656250e+02,3.965700073242187500e+02,3.964700012207031250e+02,3.964400024414062500e+02,3.963299865722656250e+02,3.962399902343750000e+02,3.961799926757812500e+02,3.961499938964843750e+02,3.960599975585937500e+02,3.960799865722656250e+02,3.961000061035156250e+02,3.961400146484375000e+02,3.961600036621093750e+02,3.961700134277343750e+02,3.962699890136718750e+02,3.963599853515625000e+02,3.964100036621093750e+02,3.963999938964843750e+02,3.963699951171875000e+02,3.963900146484375000e+02,3.964500122070312500e+02,3.964299926757812500e+02,3.962799987792968750e+02,3.962200012207031250e+02,3.961300048828125000e+02,3.959899902343750000e+02,3.959100036621093750e+02,3.959200134277343750e+02,3.957900085449218750e+02,3.958299865722656250e+02,3.956700134277343750e+02,3.954800109863281250e+02,3.952000122070312500e+02,3.952200012207031250e+02,3.950499877929687500e+02,3.949899902343750000e+02,3.947900085449218750e+02,3.947000122070312500e+02,3.945799865722656250e+02,3.945400085449218750e+02,3.943599853515625000e+02,3.943500061035156250e+02,3.941199951171875000e+02,3.943200073242187500e+02,3.944700012207031250e+02,3.943099975585937500e+02,3.942500000000000000e+02,3.942099914550781250e+02,3.941600036621093750e+02,3.942999877929687500e+02,3.942699890136718750e+02,3.943099975585937500e+02,3.943599853515625000e+02,3.944599914550781250e+02,3.938900146484375000e+02,3.943999938964843750e+02,3.945199890136718750e+02,3.939400024414062500e+02,3.937200012207031250e+02,3.935299987792968750e+02,3.934299926757812500e+02,3.931900024414062500e+02,3.931499938964843750e+02,3.930000000000000000e+02,3.928699951171875000e+02,3.928599853515625000e+02,3.927500000000000000e+02,3.926300048828125000e+02,3.924800109863281250e+02,3.923399963378906250e+02,3.921799926757812500e+02,3.920299987792968750e+02,3.918999938964843750e+02,3.917900085449218750e+02,3.916600036621093750e+02,3.914700012207031250e+02,3.914700012207031250e+02,3.914500122070312500e+02,3.913900146484375000e+02,3.915299987792968750e+02,3.914800109863281250e+02,3.916499938964843750e+02,3.917699890136718750e+02,3.918200073242187500e+02
3.958099975585937500e+02,3.959700012207031250e+02,3.959200134277343750e+02,3.962200012207031250e+02,3.959500122070312500e+02,3.959299926757812500e+02,3.961099853515625000e+02,3.960599975585937500e+02,3.962999877929687500e+02,3.962099914550781250e+02,3.967999877929687500e+02,3.959299926757812500e+02,3.966099853515625000e+02,3.966199951171875000e+02,3.966499938964843750e+02,3.967000122070312500e+02,3.967000122070312500e+02,3.967000122070312500e+02,3.967799987792968750e+02,3.968299865722656250e+02,3.969100036621093750e+02,3.970299987792968750e+02,3.970799865722656250e+02,3.971199951171875000e+02,3.971300048828125000e+02,3.971000061035156250e+02,3.971400146484375000e+02,3.971099853515625000e+02,3.970899963378906250e+02,3.970299987792968750e+02,3.969800109863281250e+02,3.968599853515625000e+02,3.968299865722656250e+02,3.967999877929687500e+02,3.967600097656250000e+02,3.967399902343750000e+02,3.967300109863281250e+02,3.967500000000000000e+02,3.966300048828125000e+02,3.964599914550781250e+02,3.963200073242187500e+02,3.962200012207031250e+02,3.961400146484375000e+02,3.961000061035156250e+02,3.961099853515625000e+02,3.962399902343750000e+02,3.962099914550781250e+02,3.962399902343750000e+02,3.963399963378906250e+02,3.963800048828125000e+02,3.964599914550781250e+02,3.965400085449218750e+02,3.964700012207031250e+02,3.964700012207031250e+02,3.964500122070312500e+02,3.964899902343750000e+02,3.964299926757812500e+02,3.963399963378906250e+02,3.962300109863281250e+02,3.961400146484375000e+02,3.959800109863281250e+02,3.959100036621093750e+02,3.958800048828125000e+02,3.958800048828125000e+02,3.958399963378906250e+02,3.956300048828125000e+02,3.955299987792968750e+02,3.953500061035156250e+02,3.952399902343750000e+02,3.949100036621093750e+02,3.948399963378906250e+02,3.947999877929687500e+02,3.947000122070312500e+02,3.946300048828125000e+02,3.945299987792968750e+02,3.944800109863281250e+02,3.942900085449218750e+02,3.942000122070312500e+02,3.940700073242187500e+02,3.939700012207031250e+02,3.940799865722656250e+02,3.942099914550781250e+02,3.940400085449218750e+02,3.940199890136718750e+02,3.939200134277343750e+02,3.941000061035156250e+02,3.941700134277343750e+02,3.943500061035156250e+02,3.942799987792968750e+02,3.937999877929687500e+02,3.944700012207031250e+02,3.943399963378906250e+02,3.939700012207031250e+02,3.937300109863281250e+02,3.935899963378906250e+02,3.934500122070312500e+02,3.932600097656250000e+02,3.932000122070312500e+02,3.930599975585937500e+02,3.929100036621093750e+02,3.929100036621093750e+02,3.928399963378906250e+02,3.927000122070312500e+02,3.926000061035156250e+02,3.923900146484375000e+02,3.922200012207031250e+02,3.920299987792968750e+02,3.919100036621093750e+02,3.917500000000000000e+02,3.916099853515625000e+02,3.915700073242187500e+02,3.913900146484375000e+02,3.913500061035156250e+02,3.913399963378906250e+02,3.912999877929687500e+02,3.914100036621093750e+02,3.915599975585937500e+02,3.916300048828125000e+02,3.916900024414062500e+02
3.954100036621093750e+02,3.956499938964843750e+02,3.957099914550781250e+02,3.959200134277343750e+02,3.958599853515625000e+02,3.958900146484375000e+02,3.959899902343750000e+02,3.959700012207031250e+02,3.961499938964843750e+02,3.962200012207031250e+02,3.969100036621093750e+02,3.959800109863281250e+02,3.965499877929687500e+02,3.965799865722656250e+02,3.966600036621093750e+02,3.967600097656250000e+02,3.967500000000000000e+02,3.967600097656250000e+02,3.968099975585937500e+02,3.968999938964843750e+02,3.969599914550781250e+02,3.970400085449218750e+02,3.970700073242187500e+02,3.971799926757812500e+02,3.971700134277343750e+02,3.972000122070312500e+02,3.972099914550781250e+02,3.971600036621093750e+02,3.971900024414062500e+02,3.971600036621093750e+02,3.970899963378906250e+02,3.970499877929687500e+02,3.969899902343750000e+02,3.969400024414062500e+02,3.969599914550781250e+02,3.969599914550781250e+02,3.969200134277343750e+02,3.968200073242187500e+02,3.967900085449218750e+02,3.965599975585937500e+02,3.964200134277343750e+02,3.963099975585937500e+02,3.961700134277343750e+02,3.961499938964843750e+02,3.961400146484375000e+02,3.962600097656250000e+02,3.962699890136718750e+02,3.963099975585937500e+02,3.964299926757812500e+02,3.964500122070312500e+02,3.965700073242187500e+02,3.966400146484375000e+02,3.965499877929687500e+02,3.965499877929687500e+02,3.964700012207031250e+02,3.964700012207031250e+02,3.963800048828125000e+02,3.963299865722656250e+02,3.962399902343750000e+02,3.961099853515625000e+02,3.959500122070312500e+02,3.958900146484375000e+02,3.959299926757812500e+02,3.958200073242187500e+02,3.957000122070312500e+02,3.955000000000000000e+02,3.954899902343750000e+02,3.952900085449218750e+02,3.952000122070312500e+02,3.950599975585937500e+02,3.948599853515625000e+02,3.948500061035156250e+02,3.948299865722656250e+02,3.948800048828125000e+02,3.947900085449218750e+02,3.946400146484375000e+02,3.944700012207031250e+02,3.943099975585937500e+02,3.939899902343750000e+02,3.937799987792968750e+02,3.936700134277343750e+02,3.937500000000000000e+02,3.937799987792968750e+02,3.937999877929687500e+02,3.934700012207031250e+02,3.938200073242187500e+02,3.938900146484375000e+02,3.941000061035156250e+02,3.941799926757812500e+02,3.937399902343750000e+02,3.944700012207031250e+02,3.942300109863281250e+02,3.940499877929687500e+02,3.938299865722656250e+02,3.936900024414062500e+02,3.936099853515625000e+02,3.933999938964843750e+02,3.932000122070312500e+02,3.930599975585937500e+02,3.928500061035156250e+02,3.928099975585937500e+02,3.927900085449218750e+02,3.927000122070312500e+02,3.926499938964843750e+02,3.924700012207031250e+02,3.922099914550781250e+02,3.921700134277343750e+02,3.919800109863281250e+02,3.918800048828125000e+02,3.917600097656250000e+02,3.917099914550781250e+02,3.914899902343750000e+02,3.913500061035156250e+02,3.912699890136718750e+02,3.912699890136718750e+02,3.913200073242187500e+02,3.913099975585937500e+02,3.914700012207031250e+02,3.914500122070312500e+02
3.953599853515625000e+02,3.953999938964843750e+02,3.956900024414062500e+02,3.957699890136718750e+02,3.956900024414062500e+02,3.957999877929687500e+02,3.958399963378906250e+02,3.957999877929687500e+02,3.959899902343750000e+02,3.961000061035156250e+02,3.968599853515625000e+02,3.959299926757812500e+02,3.966799926757812500e+02,3.966199951171875000e+02,3.966900024414062500e+02,3.967699890136718750e+02,3.968399963378906250e+02,3.968299865722656250e+02,3.968200073242187500e+02,3.969299926757812500e+02,3.969599914550781250e+02,3.970100097656250000e+02,3.970799865722656250e+02,3.971499938964843750e+02,3.972500000000000000e+02,3.972600097656250000e+02,3.972300109863281250e+02,3.972200012207031250e+02,3.971499938964843750e+02,3.972200012207031250e+02,3.971499938964843750e+02,3.972200012207031250e+02,3.970499877929687500e+02,3.970599975585937500e+02,3.970700073242187500e+02,3.970199890136718750e+02,3.969899902343750000e+02,3.969299926757812500e+02,3.967900085449218750e+02,3.966400146484375000e+02,3.964899902343750000e+02,3.963699951171875000e+02,3.962399902343750000e+02,3.961900024414062500e+02,3.961499938964843750e+02,3.962300109863281250e+02,3.962500000000000000e+02,3.963800048828125000e+02,3.964800109863281250e+02,3.965100097656250000e+02,3.965599975585937500e+02,3.966099853515625000e+02,3.966300048828125000e+02,3.965899963378906250e+02,3.965199890136718750e+02,3.965000000000000000e+02,3.964299926757812500e+02,3.963500061035156250e+02,3.962300109863281250e+02,3.961000061035156250e+02,3.959400024414062500e+02,3.959299926757812500e+02,3.958999938964843750e+02,3.958599853515625000e+02,3.956400146484375000e+02,3.955199890136718750e+02,3.953599853515625000e+02,3.952600097656250000e+02,3.951099853515625000e+02,3.950100097656250000e+02,3.948800048828125000e+02,3.949299926757812500e+02,3.948999938964843750e+02,3.948500061035156250e+02,3.947600097656250000e+02,3.947200012207031250e+02,3.946000061035156250e+02,3.943500061035156250e+02,3.940599975585937500e+02,3.938599853515625000e+02,3.937600097656250000e+02,3.935899963378906250e+02,3.936099853515625000e+02,3.936000061035156250e+02,3.935799865722656250e+02,3.936000061035156250e+02,3.937799987792968750e+02,3.939400024414062500e+02,3.941199951171875000e+02,3.940700073242187500e+02,3.943900146484375000e+02,3.944500122070312500e+02,3.940000000000000000e+02,3.938099975585937500e+02,3.936400146484375000e+02,3.935700073242187500e+02,3.932799987792968750e+02,3.931700134277343750e+02,3.929800109863281250e+02,3.929100036621093750e+02,3.927099914550781250e+02,3.927600097656250000e+02,3.926799926757812500e+02,3.925400085449218750e+02,3.924700012207031250e+02,3.923699951171875000e+02,3.923999938964843750e+02,3.922000122070312500e+02,3.920000000000000000e+02,3.919400024414062500e+02,3.917900085449218750e+02,3.916700134277343750e+02,3.917399902343750000e+02,3.915899963378906250e+02,3.914299926757812500e+02,3.912900085449218750e+02,3.912600097656250000e+02,3.913500061035156250e+02,3.913599853515625000e+02
3.952099914550781250e+02,3.952999877929687500e+02,3.952999877929687500e+02,3.954700012207031250e+02,3.955299987792968750e+02,3.956700134277343750e+02,3.958599853515625000e+02,3.959899902343750000e+02,3.960000000000000000e+02,3.962799987792968750e+02,3.968099975585937500e+02,3.960799865722656250e+02,3.968200073242187500e+02,3.967300109863281250e+02,3.967699890136718750e+02,3.968800048828125000e+02,3.969200134277343750e+02,3.969200134277343750e+02,3.969200134277343750e+02,3.969599914550781250e+02,3.970400085449218750e+02,3.971000061035156250e+02,3.971400146484375000e+02,3.971600036621093750e+02,3.972699890136718750e+02,3.973500061035156250e+02,3.973299865722656250e+02,3.973099975585937500e+02,3.972999877929687500e+02,3.973299865722656250e+02,3.973800048828125000e+02,3.972600097656250000e+02,3.972900085449218750e+02,3.972300109863281250e+02,3.971900024414062500e+02,3.972300109863281250e+02,3.971499938964843750e+02,3.970899963378906250e+02,3.969299926757812500e+02,3.967500000000000000e+02,3.966000061035156250e+02,3.964700012207031250e+02,3.963200073242187500e+02,3.962799987792968750e+02,3.962699890136718750e+02,3.963599853515625000e+02,3.963299865722656250e+02,3.964299926757812500e+02,3.965700073242187500e+02,3.966499938964843750e+02,3.966900024414062500e+02,3.967900085449218750e+02,3.968099975585937500e+02,3.967300109863281250e+02,3.967000122070312500e+02,3.966199951171875000e+02,3.965599975585937500e+02,3.964400024414062500e+02,3.962799987792968750e+02,3.961400146484375000e+02,3.960499877929687500e+02,3.959700012207031250e+02,3.960499877929687500e+02,3.956499938964843750e+02,3.956000061035156250e+02,3.953800048828125000e+02,3.952900085449218750e+02,3.954299926757812500e+02,3.951400146484375000e+02,3.953299865722656250e+02,3.951900024414062500e+02,3.951199951171875000e+02,3.950199890136718750e+02,3.949899902343750000e+02,3.948399963378906250e+02,3.947399902343750000e+02,3.945599975585937500e+02,3.943900146484375000e+02,3.943200073242187500e+02,3.942200012207031250e+02,3.938800048828125000e+02,3.939599914550781250e+02,3.942799987792968750e+02,3.945599975585937500e+02,3.947900085449218750e+02,3.948099975585937500e+02,3.949299926757812500e+02,3.947799987792968750e+02,3.947799987792968750e+02,3.947099914550781250e+02,3.944400024414062500e+02,3.943699951171875000e+02,3.941499938964843750e+02,3.939299926757812500e+02,3.935700073242187500e+02,3.933800048828125000e+02,3.931799926757812500e+02,3.930000000000000000e+02,3.927900085449218750e+02,3.925599975585937500e+02,3.925000000000000000e+02,3.924400024414062500e+02,3.922699890136718750e+02,3.921199951171875000e+02,3.920299987792968750e+02,3.919800109863281250e+02,3.919200134277343750e+02,3.918299865722656250e+02,3.918099975585937500e+02,3.916400146484375000e+02,3.915000000000000000e+02,3.914800109863281250e+02,3.916199951171875000e+02,3.915400085449218750e+02,3.914899902343750000e+02,3.914800109863281250e+02,3.913299865722656250e+02,3.913999938964843750e+02,3.913500061035156250e+02
3.956700134277343750e+02,3.955199890136718750e+02,3.955499877929687500e+02,3.956499938964843750e+02,3.956799926757812500e+02,3.957600097656250000e+02,3.959200134277343750e+02,3.960700073242187500e+02,3.962699890136718750e+02,3.962900085449218750e+02,3.964200134277343750e+02,3.962900085449218750e+02,3.966499938964843750e+02,3.966400146484375000e+02,3.966900024414062500e+02,3.968699951171875000e+02,3.968399963378906250e+02,3.970599975585937500e+02,3.969700012207031250e+02,3.969599914550781250e+02,3.969100036621093750e+02,3.971499938964843750e+02,3.971600036621093750e+02,3.972699890136718750e+02,3.972699890136718750e+02,3.971600036621093750e+02,3.971400146484375000e+02,3.972799987792968750e+02,3.973599853515625000e+02,3.973299865722656250e+02,3.972600097656250000e+02,3.973599853515625000e+02,3.972300109863281250e+02,3.970599975585937500e+02,3.970100097656250000e+02,3.970199890136718750e+02,3.969299926757812500e+02,3.968699951171875000e+02,3.968399963378906250e+02,3.967999877929687500e+02,3.968099975585937500e+02,3.968800048828125000e+02,3.967600097656250000e+02,3.965799865722656250e+02,3.967699890136718750e+02,3.967000122070312500e+02,3.968699951171875000e+02,3.967399902343750000e+02,3.969100036621093750e+02,3.969100036621093750e+02,3.970400085449218750e+02,3.970799865722656250e+02,3.969800109863281250e+02,3.969400024414062500e+02,3.969599914550781250e+02,3.970299987792968750e+02,3.969899902343750000e+02,3.967399902343750000e+02,3.966499938964843750e+02,3.965899963378906250e+02,3.963099975585937500e+02,3.962699890136718750e+02,3.962699890136718750e+02,3.962600097656250000e+02,3.961799926757812500e+02,3.961700134277343750e+02,3.961400146484375000e+02,3.961700134277343750e+02,3.961000061035156250e+02,3.960100097656250000e+02,3.959500122070312500e+02,3.958399963378906250e+02,3.957999877929687500e+02,3.956799926757812500e+02,3.956099853515625000e+02,3.956099853515625000e+02,3.955400085449218750e+02,3.955000000000000000e+02,3.954400024414062500e+02,3.953699951171875000e+02,3.953900146484375000e+02,3.952900085449218750e+02,3.951900024414062500e+02,3.951199951171875000e+02,3.950599975585937500e+02,3.950299987792968750e+02,3.950100097656250000e+02,3.948399963378906250e+02,3.947500000000000000e+02,3.946799926757812500e+02,3.945499877929687500e+02,3.945199890136718750e+02,3.944100036621093750e+02,3.944400024414062500e+02,3.943800048828125000e+02,3.942699890136718750e+02,3.940899963378906250e+02,3.940299987792968750e+02,3.939200134277343750e+02,3.937999877929687500e+02,3.936099853515625000e+02,3.935499877929687500e+02,3.933800048828125000e+02,3.933399963378906250e+02,3.934200134277343750e+02,3.932799987792968750e+02,3.932999877929687500e+02,3.933099975585937500e+02,3.931700134277343750e+02,3.929700012207031250e+02,3.928200073242187500e+02,3.927000122070312500e+02,3.924500122070312500e+02,3.922900085449218750e+02,3.918999938964843750e+02,3.917399902343750000e+02,3.916799926757812500e+02,3.918999938964843750e+02,3.919899902343750000e+02
3.974700012207031250e+02,3.975100097656250000e+02,3.974299926757812500e+02,3.973399963378906250e+02,3.973399963378906250e+02,3.973500061035156250e+02,3.975299987792968750e+02,3.976499938964843750e+02,3.977999877929687500e+02,3.978599853515625000e+02,3.978800048828125000e+02,3.979500122070312500e+02,3.979100036621093750e+02,3.978699951171875000e+02,3.977799987792968750e+02,3.977999877929687500e+02,3.977399902343750000e+02,3.977399902343750000e+02,3.976300048828125000e+02,3.975700073242187500e+02,3.975400085449218750e+02,3.975700073242187500e+02,3.976799926757812500e+02,3.977799987792968750e+02,3.976499938964843750e+02,3.975199890136718750e+02,3.975100097656250000e+02,3.974700012207031250e+02,3.974400024414062500e+02,3.974800109863281250e+02,3.973999938964843750e+02,3.973900146484375000e+02,3.973099975585937500e+02,3.973099975585937500e+02,3.972200012207031250e+02,3.972200012207031250e+02,3.971600036621093750e+02,3.972200012207031250e+02,3.972799987792968750e+02,3.972000122070312500e+02,3.972099914550781250e+02,3.972399902343750000e+02,3.971799926757812500e+02,3.971499938964843750e+02,3.970899963378906250e+02,3.970299987792968750e+02,3.971000061035156250e+02,3.970499877929687500e+02,3.971000061035156250e+02,3.971600036621093750e+02,3.970700073242187500e+02,3.971799926757812500e+02,3.971000061035156250e+02,3.970700073242187500e+02,3.970299987792968750e+02,3.970799865722656250e+02,3.970799865722656250e+02,3.969700012207031250e+02,3.968599853515625000e+02,3.967200012207031250e+02,3.966099853515625000e+02,3.965799865722656250e+02,3.965000000000000000e+02,3.965199890136718750e+02,3.964899902343750000e+02,3.965400085449218750e+02,3.964500122070312500e+02,3.964200134277343750e+02,3.963599853515625000e+02,3.962000122070312500e+02,3.961400146484375000e+02,3.961300048828125000e+02,3.961300048828125000e+02,3.961099853515625000e+02,3.960000000000000000e+02,3.959800109863281250e+02,3.959400024414062500e+02,3.958999938964843750e+02,3.958399963378906250e+02,3.957600097656250000e+02,3.956700134277343750e+02,3.956900024414062500e+02,3.956199951171875000e+02,3.956099853515625000e+02,3.955400085449218750e+02,3.954599914550781250e+02,3.953699951171875000e+02,3.953200073242187500e+02,3.952500000000000000e+02,3.952500000000000000e+02,3.952000122070312500e+02,3.951799926757812500e+02,3.950799865722656250e+02,3.950199890136718750e+02,3.948999938964843750e+02,3.948800048828125000e+02,3.947200012207031250e+02,3.945400085449218750e+02,3.945100097656250000e+02,3.943800048828125000e+02,3.942699890136718750e+02,3.941900024414062500e+02,3.941499938964843750e+02,3.941799926757812500e+02,3.940000000000000000e+02,3.940400085449218750e+02,3.941099853515625000e+02,3.940499877929687500e+02,3.939100036621093750e+02,3.938099975585937500e+02,3.938299865722656250e+02,3.937999877929687500e+02,3.936900024414062500e+02,3.935599975585937500e+02,3.935599975585937500e+02,3.935499877929687500e+02,3.935199890136718750e+02,3.935400085449218750e+02,3.934700012207031250e+02
3.992099914550781250e+02,3.992099914550781250e+02,3.991400146484375000e+02,3.991799926757812500e+02,3.991000061035156250e+02,3.990499877929687500e+02,3.990400085449218750e+02,3.990700073242187500e+02,3.991199951171875000e+02,3.990799865722656250e+02,3.990499877929687500e+02,3.990700073242187500e+02,3.990299987792968750e+02,3.990199890136718750e+02,3.990599975585937500e+02,3.990199890136718750e+02,3.990199890136718750e+02,3.989899902343750000e+02,3.989299926757812500e+02,3.989500122070312500e+02,3.988800048828125000e+02,3.989299926757812500e+02,3.988900146484375000e+02,3.988800048828125000e+02,3.988699951171875000e+02,3.987200012207031250e+02,3.988099975585937500e+02,3.987900085449218750e+02,3.987999877929687500e+02,3.986499938964843750e+02,3.987399902343750000e+02,3.987500000000000000e+02,3.986300048828125000e+02,3.986799926757812500e+02,3.986300048828125000e+02,3.986400146484375000e+02,3.986400146484375000e+02,3.986199951171875000e+02,3.985899963378906250e+02,3.985700073242187500e+02,3.985499877929687500e+02,3.985499877929687500e+02,3.984200134277343750e+02,3.985100097656250000e+02,3.984100036621093750e+02,3.984200134277343750e+02,3.983500061035156250e+02,3.984500122070312500e+02,3.983099975585937500e+02,3.983099975585937500e+02,3.981799926757812500e+02,3.981799926757812500e+02,3.981700134277343750e+02,3.981300048828125000e+02,3.980599975585937500e+02,3.980700073242187500e+02,3.980299987792968750e+02,3.980000000000000000e+02,3.978900146484375000e+02,3.979100036621093750e+02,3.978099975585937500e+02,3.977300109863281250e+02,3.977799987792968750e+02,3.974599914550781250e+02,3.974899902343750000e+02,3.974899902343750000e+02,3.974599914550781250e+02,3.973099975585937500e+02,3.972799987792968750e+02,3.972500000000000000e+02,3.971400146484375000e+02,3.971600036621093750e+02,3.970100097656250000e+02,3.968599853515625000e+02,3.969500122070312500e+02,3.969200134277343750e+02,3.969200134277343750e+02,3.967799987792968750e+02,3.966600036621093750e+02,3.965199890136718750e+02,3.965100097656250000e+02,3.965599975585937500e+02,3.964500122070312500e+02,3.963999938964843750e+02,3.963500061035156250e+02,3.962699890136718750e+02,3.962200012207031250e+02,3.960899963378906250e+02,3.960799865722656250e+02,3.960199890136718750e+02,3.959200134277343750e+02,3.957300109863281250e+02,3.957200012207031250e+02,3.957300109863281250e+02,3.957099914550781250e+02,3.955599975585937500e+02,3.955000000000000000e+02,3.954599914550781250e+02,3.954299926757812500e+02,3.951900024414062500e+02,3.953099975585937500e+02,3.951400146484375000e+02,3.951300048828125000e+02,3.950199890136718750e+02,3.950100097656250000e+02,3.948699951171875000e+02,3.948299865722656250e+02,3.948399963378906250e+02,3.947200012207031250e+02,3.946600036621093750e+02,3.946099853515625000e+02,3.944299926757812500e+02,3.944100036621093750e+02,3.943399963378906250e+02,3.942900085449218750e+02,3.942300109863281250e+02,3.942300109863281250e+02,3.941099853515625000e+02,3.940299987792968750e+02
3.995199890136718750e+02,3.993999938964843750e+02,3.994299926757812500e+02,3.993999938964843750e+02,3.994400024414062500e+02,3.994400024414062500e+02,3.993800048828125000e+02,3.993900146484375000e+02,3.993500061035156250e+02,3.993699951171875000e+02,3.993599853515625000e+02,3.992999877929687500e+02,3.991799926757812500e+02,3.992399902343750000e+02,3.992900085449218750e+02,3.991799926757812500e+02,3.991799926757812500e+02,3.991600036621093750e+02,3.991499938964843750e+02,3.990899963378906250e+02,3.991300048828125000e+02,3.990700073242187500e+02,3.990499877929687500e+02,3.989299926757812500e+02,3.989899902343750000e+02,3.989700012207031250e+02,3.989200134277343750e+02,3.989400024414062500e+02,3.988999938964843750e+02,3.988800048828125000e+02,3.988500061035156250e+02,3.988900146484375000e+02,3.988299865722656250e+02,3.987799987792968750e+02,3.987600097656250000e+02,3.987399902343750000e+02,3.987000122070312500e+02,3.987200012207031250e+02,3.986600036621093750e+02,3.986000061035156250e+02,3.985599975585937500e+02,3.985700073242187500e+02,3.985799865722656250e+02,3.985199890136718750e+02,3.984700012207031250e+02,3.984500122070312500e+02,3.984299926757812500e+02,3.984400024414062500e+02,3.983900146484375000e+02,3.982699890136718750e+02,3.982600097656250000e+02,3.982300109863281250e+02,3.982300109863281250e+02,3.981199951171875000e+02,3.980599975585937500e+02,3.979899902343750000e+02,3.978800048828125000e+02,3.978699951171875000e+02,3.979299926757812500e+02,3.979100036621093750e+02,3.976799926757812500e+02,3.976000061035156250e+02,3.976000061035156250e+02,3.974899902343750000e+02,3.974400024414062500e+02,3.973800048828125000e+02,3.973299865722656250e+02,3.972699890136718750e+02,3.972600097656250000e+02,3.970599975585937500e+02,3.970000000000000000e+02,3.969800109863281250e+02,3.969200134277343750e+02,3.968699951171875000e+02,3.967999877929687500e+02,3.967399902343750000e+02,3.965499877929687500e+02,3.965199890136718750e+02,3.964299926757812500e+02,3.963800048828125000e+02,3.962900085449218750e+02,3.961199951171875000e+02,3.960599975585937500e+02,3.959200134277343750e+02,3.958099975585937500e+02,3.957799987792968750e+02,3.956400146484375000e+02,3.955400085449218750e+02,3.955499877929687500e+02,3.953999938964843750e+02,3.953999938964843750e+02,3.952900085449218750e+02,3.952399902343750000e+02,3.952699890136718750e+02,3.951499938964843750e+02,3.950100097656250000e+02,3.949400024414062500e+02,3.948900146484375000e+02,3.948200073242187500e+02,3.946799926757812500e+02,3.946099853515625000e+02,3.945499877929687500e+02,3.944299926757812500e+02,3.943699951171875000e+02,3.943099975585937500e+02,3.942200012207031250e+02,3.941099853515625000e+02,3.940599975585937500e+02,3.939599914550781250e+02,3.939500122070312500e+02,3.937799987792968750e+02,3.936799926757812500e+02,3.936000061035156250e+02,3.934700012207031250e+02,3.934599914550781250e+02,3.933500061035156250e+02,3.933099975585937500e+02,3.934200134277343750e+02,3.931900024414062500e+02
3.985499877929687500e+02,3.990400085449218750e+02,3.987200012207031250e+02,3.986600036621093750e+02,3.987300109863281250e+02,3.986499938964843750e+02,3.986600036621093750e+02,3.986199951171875000e+02,3.985599975585937500e+02,3.985100097656250000e+02,3.985899963378906250e+02,3.985299987792968750e+02,3.985299987792968750e+02,3.984500122070312500e+02,3.983999938964843750e+02,3.983900146484375000e+02,3.983699951171875000e+02,3.984100036621093750e+02,3.983800048828125000e+02,3.983900146484375000e+02,3.983599853515625000e+02,3.983299865722656250e+02,3.983500061035156250e+02,3.982999877929687500e+02,3.982600097656250000e+02,3.982300109863281250e+02,3.981499938964843750e+02,3.981199951171875000e+02,3.980199890136718750e+02,3.979599914550781250e+02,3.983800048828125000e+02,3.980700073242187500e+02,3.979800109863281250e+02,3.980599975585937500e+02,3.980299987792968750e+02,3.979599914550781250e+02,3.980000000000000000e+02,3.979100036621093750e+02,3.978800048828125000e+02,3.978999938964843750e+02,3.978699951171875000e+02,3.977999877929687500e+02,3.977900085449218750e+02,3.977600097656250000e+02,3.977399902343750000e+02,3.977399902343750000e+02,3.976900024414062500e+02,3.976400146484375000e+02,3.975799865722656250e+02,3.975199890136718750e+02,3.975400085449218750e+02,3.974599914550781250e+02,3.973800048828125000e+02,3.973200073242187500e+02,3.972600097656250000e+02,3.972000122070312500e+02,3.971799926757812500e+02,3.970499877929687500e+02,3.969899902343750000e+02,3.977799987792968750e+02,3.971400146484375000e+02,3.969200134277343750e+02,3.968599853515625000e+02,3.967999877929687500e+02,3.967699890136718750e+02,3.967000122070312500e+02,3.966000061035156250e+02,3.966099853515625000e+02,3.965799865722656250e+02,3.965299987792968750e+02,3.963999938964843750e+02,3.963699951171875000e+02,3.963200073242187500e+02,3.963200073242187500e+02,3.962399902343750000e+02,3.961400146484375000e+02,3.960499877929687500e+02,3.960100097656250000e+02,3.959500122070312500e+02,3.958800048828125000e+02,3.958399963378906250e+02,3.957999877929687500e+02,3.957200012207031250e+02,3.956099853515625000e+02,3.955400085449218750e+02,3.954400024414062500e+02,3.953399963378906250e+02,3.952200012207031250e+02,3.953500061035156250e+02,3.951700134277343750e+02,3.950899963378906250e+02,3.950899963378906250e+02,3.950400085449218750e+02,3.950400085449218750e+02,3.949599914550781250e+02,3.948500061035156250e+02,3.948399963378906250e+02,3.947399902343750000e+02,3.946400146484375000e+02,3.946099853515625000e+02,3.945799865722656250e+02,3.945499877929687500e+02,3.943999938964843750e+02,3.944100036621093750e+02,3.943699951171875000e+02,3.943200073242187500e+02,3.942099914550781250e+02,3.942600097656250000e+02,3.941300048828125000e+02,3.941300048828125000e+02,3.939400024414062500e+02,3.939100036621093750e+02,3.939500122070312500e+02,3.938599853515625000e+02,3.937200012207031250e+02,3.936900024414062500e+02,3.936799926757812500e+02,3.936099853515625000e+02,3.935799865722656250e+02
3.995899963378906250e+02,3.995499877929687500e+02,3.995700073242187500e+02,3.995700073242187500e+02,3.996000061035156250e+02,3.995499877929687500e+02,3.994899902343750000e+02,3.995400085449218750e+02,3.995100097656250000e+02,3.994400024414062500e+02,3.994599914550781250e+02,3.994100036621093750e+02,3.994500122070312500e+02,3.993999938964843750e+02,3.993800048828125000e+02,3.993900146484375000e+02,3.993299865722656250e+02,3.993399963378906250e+02,3.992999877929687500e+02,3.993200073242187500e+02,3.993099975585937500e+02,3.992300109863281250e+02,3.992200012207031250e+02,3.992300109863281250e+02,3.992000122070312500e+02,3.991099853515625000e+02,3.992000122070312500e+02,3.991600036621093750e+02,3.991099853515625000e+02,3.991199951171875000e+02,3.990599975585937500e+02,3.990400085449218750e+02,3.989899902343750000e+02,3.990299987792968750e+02,3.990199890136718750e+02,3.989800109863281250e+02,3.989599914550781250e+02,3.989100036621093750e+02,3.988999938964843750e+02,3.988299865722656250e+02,3.988399963378906250e+02,3.988399963378906250e+02,3.987399902343750000e+02,3.987399902343750000e+02,3.986300048828125000e+02,3.986499938964843750e+02,3.986400146484375000e+02,3.986000061035156250e+02,3.985400085449218750e+02,3.984500122070312500e+02,3.984200134277343750e+02,3.983200073242187500e+02,3.983099975585937500e+02,3.982699890136718750e+02,3.982300109863281250e+02,3.981700134277343750e+02,3.981499938964843750e+02,3.980899963378906250e+02,3.980199890136718750e+02,3.979500122070312500e+02,3.978699951171875000e+02,3.978200073242187500e+02,3.977399902343750000e+02,3.977399902343750000e+02,3.976300048828125000e+02,3.975899963378906250e+02,3.974899902343750000e+02,3.974299926757812500e+02,3.973699951171875000e+02,3.972600097656250000e+02,3.972099914550781250e+02,3.971499938964843750e+02,3.971099853515625000e+02,3.970400085449218750e+02,3.969800109863281250e+02,3.968900146484375000e+02,3.968099975585937500e+02,3.967200012207031250e+02,3.966499938964843750e+02,3.966400146484375000e+02,3.964700012207031250e+02,3.964599914550781250e+02,3.964200134277343750e+02,3.963699951171875000e+02,3.962200012207031250e+02,3.962399902343750000e+02,3.961099853515625000e+02,3.960100097656250000e+02,3.959599914550781250e+02,3.959299926757812500e+02,3.958099975585937500e+02,3.957900085449218750e+02,3.956799926757812500e+02,3.956300048828125000e+02,3.956400146484375000e+02,3.955700073242187500e+02,3.954500122070312500e+02,3.953500061035156250e+02,3.952900085449218750e+02,3.952300109863281250e+02,3.951300048828125000e+02,3.951000061035156250e+02,3.949700012207031250e+02,3.949700012207031250e+02,3.948399963378906250e+02,3.947500000000000000e+02,3.946799926757812500e+02,3.945799865722656250e+02,3.945400085449218750e+02,3.944400024414062500e+02,3.944700012207031250e+02,3.943699951171875000e+02,3.942600097656250000e+02,3.942399902343750000e+02,3.941300048828125000e+02,3.940599975585937500e+02,3.940400085449218750e+02,3.939800109863281250e+02,3.939200134277343750e+02
3.994500122070312500e+02,3.994800109863281250e+02,3.993299865722656250e+02,3.993500061035156250e+02,3.993699951171875000e+02,3.993099975585937500e+02,3.992600097656250000e+02,3.992999877929687500e+02,3.992099914550781250e+02,3.991400146484375000e+02,3.992200012207031250e+02,3.991499938964843750e+02,3.991600036621093750e+02,3.990799865722656250e+02,3.991600036621093750e+02,3.990499877929687500e+02,3.990400085449218750e+02,3.989899902343750000e+02,3.990000000000000000e+02,3.990000000000000000e+02,3.989899902343750000e+02,3.988900146484375000e+02,3.988399963378906250e+02,3.988699951171875000e+02,3.988800048828125000e+02,3.987600097656250000e+02,3.986799926757812500e+02,3.986900024414062500e+02,3.986499938964843750e+02,3.986300048828125000e+02,3.986199951171875000e+02,3.985199890136718750e+02,3.984800109863281250e+02,3.984400024414062500e+02,3.984299926757812500e+02,3.983399963378906250e+02,3.983200073242187500e+02,3.982000122070312500e+02,3.982999877929687500e+02,3.983200073242187500e+02,3.982799987792968750e+02,3.982600097656250000e+02,3.981600036621093750e+02,3.981499938964843750e+02,3.980599975585937500e+02,3.980499877929687500e+02,3.980000000000000000e+02,3.979599914550781250e+02,3.978800048828125000e+02,3.977900085449218750e+02,3.977600097656250000e+02,3.976199951171875000e+02,3.975599975585937500e+02,3.975599975585937500e+02,3.974200134277343750e+02,3.973299865722656250e+02,3.972699890136718750e+02,3.971700134277343750e+02,3.971300048828125000e+02,3.970700073242187500e+02,3.970299987792968750e+02,3.969599914550781250e+02,3.969400024414062500e+02,3.968599853515625000e+02,3.968200073242187500e+02,3.967200012207031250e+02,3.966000061035156250e+02,3.965400085449218750e+02,3.966000061035156250e+02,3.964800109863281250e+02,3.963399963378906250e+02,3.962300109863281250e+02,3.962500000000000000e+02,3.961300048828125000e+02,3.960100097656250000e+02,3.958900146484375000e+02,3.957999877929687500e+02,3.958200073242187500e+02,3.957799987792968750e+02,3.956900024414062500e+02,3.955499877929687500e+02,3.953500061035156250e+02,3.952799987792968750e+02,3.952799987792968750e+02,3.952300109863281250e+02,3.951900024414062500e+02,3.950599975585937500e+02,3.949400024414062500e+02,3.948500061035156250e+02,3.947000122070312500e+02,3.945400085449218750e+02,3.945799865722656250e+02,3.945000000000000000e+02,3.943099975585937500e+02,3.941900024414062500e+02,3.942399902343750000e+02,3.941499938964843750e+02,3.941300048828125000e+02,3.941199951171875000e+02,3.940700073242187500e+02,3.939899902343750000e+02,3.938599853515625000e+02,3.936300048828125000e+02,3.936000061035156250e+02,3.934500122070312500e+02,3.934100036621093750e+02,3.932500000000000000e+02,3.932300109863281250e+02,3.930700073242187500e+02,3.930400085449218750e+02,3.929500122070312500e+02,3.929299926757812500e+02,3.928399963378906250e+02,3.928599853515625000e+02,3.928699951171875000e+02,3.927500000000000000e+02,3.927699890136718750e+02,3.926199951171875000e+02,3.924400024414062500e+02
3.977900085449218750e+02,3.978399963378906250e+02,3.976400146484375000e+02,3.977300109863281250e+02,3.977699890136718750e+02,3.976400146484375000e+02,3.975599975585937500e+02,3.975799865722656250e+02,3.976300048828125000e+02,3.976400146484375000e+02,3.977000122070312500e+02,3.976700134277343750e+02,3.976099853515625000e+02,3.975700073242187500e+02,3.975199890136718750e+02,3.974700012207031250e+02,3.975400085449218750e+02,3.975599975585937500e+02,3.975599975585937500e+02,3.976099853515625000e+02,3.975599975585937500e+02,3.974500122070312500e+02,3.974200134277343750e+02,3.973599853515625000e+02,3.971400146484375000e+02,3.970499877929687500e+02,3.970599975585937500e+02,3.971000061035156250e+02,3.970799865722656250e+02,3.970199890136718750e+02,3.970000000000000000e+02,3.969400024414062500e+02,3.969200134277343750e+02,3.969500122070312500e+02,3.968800048828125000e+02,3.968900146484375000e+02,3.968099975585937500e+02,3.969100036621093750e+02,3.967999877929687500e+02,3.967999877929687500e+02,3.967000122070312500e+02,3.966900024414062500e+02,3.966799926757812500e+02,3.966600036621093750e+02,3.966000061035156250e+02,3.965000000000000000e+02,3.965400085449218750e+02,3.965100097656250000e+02,3.964899902343750000e+02,3.964800109863281250e+02,3.963699951171875000e+02,3.963099975585937500e+02,3.962600097656250000e+02,3.962300109863281250e+02,3.962699890136718750e+02,3.961400146484375000e+02,3.960599975585937500e+02,3.960400085449218750e+02,3.959800109863281250e+02,3.959200134277343750e+02,3.960199890136718750e+02,3.961000061035156250e+02,3.960199890136718750e+02,3.960899963378906250e+02,3.960400085449218750e+02,3.960400085449218750e+02,3.960000000000000000e+02,3.959200134277343750e+02,3.957999877929687500e+02,3.957099914550781250e+02,3.956400146484375000e+02,3.955799865722656250e+02,3.955000000000000000e+02,3.955700073242187500e+02,3.954299926757812500e+02,3.953900146484375000e+02,3.953399963378906250e+02,3.952999877929687500e+02,3.952699890136718750e+02,3.951600036621093750e+02,3.951799926757812500e+02,3.950199890136718750e+02,3.948699951171875000e+02,3.947399902343750000e+02,3.945899963378906250e+02,3.942600097656250000e+02,3.939400024414062500e+02,3.934800109863281250e+02,3.932600097656250000e+02,3.929899902343750000e+02,3.929200134277343750e+02,3.928299865722656250e+02,3.928099975585937500e+02,3.927399902343750000e+02,3.926600036621093750e+02,3.927399902343750000e+02,3.927399902343750000e+02,3.927799987792968750e+02,3.927799987792968750e+02,3.925799865722656250e+02,3.923900146484375000e+02,3.922500000000000000e+02,3.920100097656250000e+02,3.917799987792968750e+02,3.916400146484375000e+02,3.913999938964843750e+02,3.914299926757812500e+02,3.913900146484375000e+02,3.912900085449218750e+02,3.912000122070312500e+02,3.911099853515625000e+02,3.910599975585937500e+02,3.910400085449218750e+02,3.909400024414062500e+02,3.909700012207031250e+02,3.908299865722656250e+02,3.910100097656250000e+02,3.908500061035156250e+02,3.907600097656250000e+02
3.961099853515625000e+02,3.963399963378906250e+02,3.965000000000000000e+02,3.965899963378906250e+02,3.964899902343750000e+02,3.965100097656250000e+02,3.963099975585937500e+02,3.962999877929687500e+02,3.963099975585937500e+02,3.962699890136718750e+02,3.964400024414062500e+02,3.965700073242187500e+02,3.965400085449218750e+02,3.965499877929687500e+02,3.966400146484375000e+02,3.966300048828125000e+02,3.966799926757812500e+02,3.967600097656250000e+02,3.968599853515625000e+02,3.968299865722656250e+02,3.968699951171875000e+02,3.967999877929687500e+02,3.968599853515625000e+02,3.967799987792968750e+02,3.967799987792968750e+02,3.967500000000000000e+02,3.967399902343750000e+02,3.968900146484375000e+02,3.969299926757812500e+02,3.970199890136718750e+02,3.969400024414062500e+02,3.970499877929687500e+02,3.970499877929687500e+02,3.969700012207031250e+02,3.970899963378906250e+02,3.970899963378906250e+02,3.969899902343750000e+02,3.969400024414062500e+02,3.969800109863281250e+02,3.969700012207031250e+02,3.969299926757812500e+02,3.968599853515625000e+02,3.968900146484375000e+02,3.967500000000000000e+02,3.967099914550781250e+02,3.967500000000000000e+02,3.967300109863281250e+02,3.966799926757812500e+02,3.966400146484375000e+02,3.966900024414062500e+02,3.967099914550781250e+02,3.967099914550781250e+02,3.966600036621093750e+02,3.965400085449218750e+02,3.963999938964843750e+02,3.962500000000000000e+02,3.962000122070312500e+02,3.960499877929687500e+02,3.960400085449218750e+02,3.959200134277343750e+02,3.956799926757812500e+02,3.956700134277343750e+02,3.957300109863281250e+02,3.958299865722656250e+02,3.960299987792968750e+02,3.960899963378906250e+02,3.960199890136718750e+02,3.959100036621093750e+02,3.958200073242187500e+02,3.956799926757812500e+02,3.956199951171875000e+02,3.956700134277343750e+02,3.956700134277343750e+02,3.956000061035156250e+02,3.955599975585937500e+02,3.955000000000000000e+02,3.954299926757812500e+02,3.953699951171875000e+02,3.954200134277343750e+02,3.953500061035156250e+02,3.952699890136718750e+02,3.951300048828125000e+02,3.948800048828125000e+02,3.947699890136718750e+02,3.946300048828125000e+02,3.943999938964843750e+02,3.941499938964843750e+02,3.933500061035156250e+02,3.932099914550781250e+02,3.928800048828125000e+02,3.926099853515625000e+02,3.926400146484375000e+02,3.923800048828125000e+02,3.921799926757812500e+02,3.921199951171875000e+02,3.921300048828125000e+02,3.919800109863281250e+02,3.918699951171875000e+02,3.917300109863281250e+02,3.915400085449218750e+02,3.914299926757812500e+02,3.913200073242187500e+02,3.912500000000000000e+02,3.912799987792968750e+02,3.912500000000000000e+02,3.911400146484375000e+02,3.909400024414062500e+02,3.909500122070312500e+02,3.908299865722656250e+02,3.908099975585937500e+02,3.907799987792968750e+02,3.906700134277343750e+02,3.906199951171875000e+02,3.907200012207031250e+02,3.906600036621093750e+02,3.907900085449218750e+02,3.907699890136718750e+02,3.907500000000000000e+02,3.906600036621093750e+02
3.959299926757812500e+02,3.960100097656250000e+02,3.960599975585937500e+02,3.961499938964843750e+02,3.961499938964843750e+02,3.961099853515625000e+02,3.960400085449218750e+02,3.960700073242187500e+02,3.960499877929687500e+02,3.962399902343750000e+02,3.963599853515625000e+02,3.964299926757812500e+02,3.962799987792968750e+02,3.962399902343750000e+02,3.962300109863281250e+02,3.962300109863281250e+02,3.962799987792968750e+02,3.963099975585937500e+02,3.963999938964843750e+02,3.964700012207031250e+02,3.965499877929687500e+02,3.964899902343750000e+02,3.965100097656250000e+02,3.964899902343750000e+02,3.964899902343750000e+02,3.965100097656250000e+02,3.966000061035156250e+02,3.967000122070312500e+02,3.967200012207031250e+02,3.967999877929687500e+02,3.968500061035156250e+02,3.968800048828125000e+02,3.968800048828125000e+02,3.969500122070312500e+02,3.969500122070312500e+02,3.969400024414062500e+02,3.968800048828125000e+02,3.968200073242187500e+02,3.968900146484375000e+02,3.968500061035156250e+02,3.968800048828125000e+02,3.968699951171875000e+02,3.968299865722656250e+02,3.967399902343750000e+02,3.967099914550781250e+02,3.967000122070312500e+02,3.966499938964843750e+02,3.966199951171875000e+02,3.965499877929687500e+02,3.965100097656250000e+02,3.965199890136718750e+02,3.965000000000000000e+02,3.964400024414062500e+02,3.963999938964843750e+02,3.963599853515625000e+02,3.962000122070312500e+02,3.961000061035156250e+02,3.959700012207031250e+02,3.958500061035156250e+02,3.956799926757812500e+02,3.955400085449218750e+02,3.954299926757812500e+02,3.951099853515625000e+02,3.948800048828125000e+02,3.947399902343750000e+02,3.947300109863281250e+02,3.948699951171875000e+02,3.948299865722656250e+02,3.947500000000000000e+02,3.946799926757812500e+02,3.944899902343750000e+02,3.943699951171875000e+02,3.943099975585937500e+02,3.942300109863281250e+02,3.939800109863281250e+02,3.937600097656250000e+02,3.936199951171875000e+02,3.934500122070312500e+02,3.935299987792968750e+02,3.932200012207031250e+02,3.933299865722656250e+02,3.931199951171875000e+02,3.932200012207031250e+02,3.929500122070312500e+02,3.928699951171875000e+02,3.929100036621093750e+02,3.925000000000000000e+02,3.926799926757812500e+02,3.925499877929687500e+02,3.928800048828125000e+02,3.922000122070312500e+02,3.922600097656250000e+02,3.921799926757812500e+02,3.920400085449218750e+02,3.923599853515625000e+02,3.921099853515625000e+02,3.921700134277343750e+02,3.920299987792968750e+02,3.920499877929687500e+02,3.916600036621093750e+02,3.916499938964843750e+02,3.913200073242187500e+02,3.913699951171875000e+02,3.912699890136718750e+02,3.911000061035156250e+02,3.912200012207031250e+02,3.908999938964843750e+02,3.908599853515625000e+02,3.906499938964843750e+02,3.907399902343750000e+02,3.906499938964843750e+02,3.903999938964843750e+02,3.905499877929687500e+02,3.903800048828125000e+02,3.903200073242187500e+02,3.902900085449218750e+02,3.903299865722656250e+02,3.903399963378906250e+02,3.901499938964843750e+02
3.959400024414062500e+02,3.960000000000000000e+02,3.960899963378906250e+02,3.961400146484375000e+02,3.961400146484375000e+02,3.961499938964843750e+02,3.961000061035156250e+02,3.960000000000000000e+02,3.959500122070312500e+02,3.960599975585937500e+02,3.964299926757812500e+02,3.965400085449218750e+02,3.961700134277343750e+02,3.962300109863281250e+02,3.962300109863281250e+02,3.962200012207031250e+02,3.962699890136718750e+02,3.962900085449218750e+02,3.963900146484375000e+02,3.964800109863281250e+02,3.966000061035156250e+02,3.965899963378906250e+02,3.965199890136718750e+02,3.965000000000000000e+02,3.965199890136718750e+02,3.965700073242187500e+02,3.966000061035156250e+02,3.966499938964843750e+02,3.967000122070312500e+02,3.967300109863281250e+02,3.968200073242187500e+02,3.968399963378906250e+02,3.969200134277343750e+02,3.969400024414062500e+02,3.968699951171875000e+02,3.968599853515625000e+02,3.969200134277343750e+02,3.968999938964843750e+02,3.969299926757812500e+02,3.969400024414062500e+02,3.969800109863281250e+02,3.969599914550781250e+02,3.969299926757812500e+02,3.968299865722656250e+02,3.967799987792968750e+02,3.968200073242187500e+02,3.967699890136718750e+02,3.967200012207031250e+02,3.965899963378906250e+02,3.965199890136718750e+02,3.964599914550781250e+02,3.963999938964843750e+02,3.963099975585937500e+02,3.962900085449218750e+02,3.962099914550781250e+02,3.961400146484375000e+02,3.961099853515625000e+02,3.959400024414062500e+02,3.958200073242187500e+02,3.956300048828125000e+02,3.955199890136718750e+02,3.954200134277343750e+02,3.952000122070312500e+02,3.950400085449218750e+02,3.948900146484375000e+02,3.947000122070312500e+02,3.944800109863281250e+02,3.943800048828125000e+02,3.941600036621093750e+02,3.940599975585937500e+02,3.940000000000000000e+02,3.939299926757812500e+02,3.937099914550781250e+02,3.935700073242187500e+02,3.934700012207031250e+02,3.933299865722656250e+02,3.932300109863281250e+02,3.931799926757812500e+02,3.930100097656250000e+02,3.929700012207031250e+02,3.929299926757812500e+02,3.927200012207031250e+02,3.927300109863281250e+02,3.926499938964843750e+02,3.925000000000000000e+02,3.924200134277343750e+02,3.924299926757812500e+02,3.925199890136718750e+02,3.922900085449218750e+02,3.927200012207031250e+02,3.924200134277343750e+02,3.924200134277343750e+02,3.919599914550781250e+02,3.918200073242187500e+02,3.919200134277343750e+02,3.917900085449218750e+02,3.917500000000000000e+02,3.917399902343750000e+02,3.915700073242187500e+02,3.913699951171875000e+02,3.913099975585937500e+02,3.911799926757812500e+02,3.911099853515625000e+02,3.910000000000000000e+02,3.908800048828125000e+02,3.908800048828125000e+02,3.908500061035156250e+02,3.906900024414062500e+02,3.905299987792968750e+02,3.903900146484375000e+02,3.903800048828125000e+02,3.903999938964843750e+02,3.903399963378906250e+02,3.903500061035156250e+02,3.903500061035156250e+02,3.903200073242187500e+02,3.903800048828125000e+02,3.904200134277343750e+02,3.902300109863281250e+02
