0.00E+00,0.00E+00,0.00E+00,0.00E+00,0.00E+00,0.00E+00,0.00E+00,0.00E+00,0.00E+00,0.00E+00,0.00E+00,0.00E+00,0.00E+00,0.00E+00,9.75E+02,9.76E+02,9.77E+02,9.77E+02,9.77E+02,9.77E+02,9.76E+02,9.76E+02,9.76E+02,9.76E+02,9.76E+02,9.75E+02,9.75E+02,9.75E+02,9.75E+02,9.75E+02,9.75E+02,9.74E+02,9.74E+02,9.74E+02,9.74E+02,9.74E+02,9.74E+02,9.74E+02,9.74E+02,9.73E+02,9.73E+02,9.73E+02,9.73E+02,9.73E+02,9.73E+02,9.73E+02,9.73E+02,9.73E+02,9.73E+02,9.73E+02,9.73E+02,9.73E+02,9.72E+02,9.72E+02,9.72E+02,9.72E+02,9.72E+02,9.72E+02,9.72E+02,9.72E+02,9.72E+02,9.72E+02,9.72E+02,9.72E+02,9.72E+02,9.72E+02,9.72E+02,9.72E+02,9.72E+02,9.72E+02,9.72E+02,9.72E+02,9.73E+02,9.73E+02,9.73E+02,9.73E+02,9.73E+02,9.73E+02,9.73E+02,9.73E+02,9.73E+02,9.73E+02,9.73E+02,9.74E+02,9.74E+02,9.74E+02,9.74E+02,9.74E+02,9.75E+02,9.75E+02,9.75E+02,9.75E+02,9.76E+02,9.76E+02,9.76E+02,9.77E+02,9.77E+02,9.78E+02,9.78E+02,9.79E+02,9.79E+02,9.80E+02,9.80E+02,9.81E+02,9.82E+02,9.82E+02,9.83E+02,9.83E+02,9.84E+02,9.84E+02,9.85E+02,9.86E+02,9.86E+02,9.87E+02,9.87E+02,9.88E+02,9.88E+02,9.89E+02,9.89E+02,9.90E+02,9.90E+02,9.91E+02,9.91E+02,9.92E+02,9.92E+02,9.93E+02,9.93E+02,9.94E+02,9.94E+02,9.95E+02,9.96E+02,9.96E+02,9.97E+02,9.97E+02,9.98E+02,9.98E+02,9.98E+02,9.99E+02,9.99E+02,1.00E+03,1.00E+03,1.00E+03,1.00E+03,1.00E+03,1.00E+03,1.00E+03,1.00E+03,1.00E+03,1.00E+03,1.00E+03,1.00E+03,1.00E+03,1.00E+03,1.00E+03,1.00E+03,1.00E+03,1.00E+03,1.00E+03,1.00E+03,1.00E+03,1.00E+03,1.00E+03,1.00E+03,9.99E+02,9.99E+02,9.98E+02,9.98E+02,9.97E+02,9.97E+02,9.96E+02,9.96E+02,9.96E+02,9.95E+02,9.95E+02,9.94E+02,9.94E+02,9.94E+02,9.93E+02,9.93E+02,9.93E+02,9.93E+02,9.92E+02,9.92E+02,9.92E+02,9.92E+02,9.92E+02,9.92E+02,9.92E+02,9.91E+02,9.91E+02,9.91E+02,9.91E+02,9.91E+02,9.91E+02,9.91E+02,9.91E+02,9.91E+02,9.91E+02,9.91E+02,9.91E+02,9.91E+02,9.92E+02,9.92E+02,9.92E+02,9.92E+02,9.92E+02,9.92E+02,9.92E+02,9.92E+02,9.92E+02,9.93E+02,9.93E+02,9.93E+02,9.93E+02,9.93E+02,9.94E+02,9.94E+02,9.94E+02,9.94E+02,9.94E+02,9.94E+02,9.95E+02,9.95E+02,9.95E+02,9.95E+02,9.95E+02,9.95E+02,9.95E+02,9.95E+02,9.95E+02,9.95E+02,9.95E+02,9.95E+02,9.95E+02,9.95E+02,9.95E+02,9.95E+02,9.95E+02,9.95E+02,9.95E+02,9.95E+02,9.95E+02,9.95E+02,9.95E+02,9.95E+02,9.95E+02,9.94E+02,9.94E+02,9.94E+02,9.94E+02,9.94E+02,9.94E+02,9.93E+02,9.93E+02,9.93E+02,9.93E+02,9.92E+02,9.92E+02,9.92E+02,9.92E+02,9.91E+02,9.91E+02,9.91E+02,9.90E+02,9.90E+02,9.90E+02,9.90E+02,9.89E+02,9.89E+02,9.89E+02,9.89E+02,9.88E+02,9.88E+02,9.88E+02,9.88E+02,9.87E+02,9.87E+02,9.87E+02,9.87E+02,9.87E+02,9.87E+02,9.87E+02,9.87E+02,9.87E+02,9.87E+02,9.87E+02,9.87E+02,9.87E+02,9.88E+02,9.88E+02,9.88E+02,9.88E+02,9.89E+02,9.89E+02,9.89E+02,9.89E+02,9.90E+02,9.90E+02,9.90E+02,9.90E+02,9.91E+02,9.91E+02,9.91E+02,9.91E+02,9.92E+02,9.92E+02,9.92E+02,9.92E+02,9.92E+02,9.93E+02,9.93E+02,9.93E+02,9.93E+02,9.93E+02,9.93E+02,9.94E+02,9.94E+02,9.94E+02,9.94E+02,9.94E+02,9.94E+02,9.94E+02,9.95E+02,9.95E+02,9.95E+02,9.95E+02,9.95E+02,9.95E+02,9.95E+02,9.96E+02,9.96E+02
0.00E+00,0.00E+00,0.00E+00,0.00E+00,0.00E+00,0.00E+00,0.00E+00,0.00E+00,0.00E+00,0.00E+00,0.00E+00,0.00E+00,0.00E+00,0.00E+00,9.75E+02,9.76E+02,9.77E+02,9.77E+02,9.77E+02,9.77E+02,9.77E+02,9.76E+02,9.76E+02,9.76E+02,9.76E+02,9.75E+02,9.75E+02,9.75E+02,9.75E+02,9.75E+02,9.75E+02,9.75E+02,9.74E+02,9.74E+02,9.74E+02,9.74E+02,9.74E+02,9.74E+02,9.74E+02,9.74E+02,9.74E+02,9.73E+02,9.73E+02,9.73E+02,9.73E+02,9.73E+02,9.73E+02,9.73E+02,9.73E+02,9.73E+02,9.73E+02,9.73E+02,9.73E+02,9.73E+02,9.73E+02,9.73E+02,9.73E+02,9.73E+02,9.72E+02,9.72E+02,9.72E+02,9.72E+02,9.72E+02,9.72E+02,9.72E+02,9.72E+02,9.72E+02,9.73E+02,9.73E+02,9.73E+02,9.73E+02,9.73E+02,9.73E+02,9.73E+02,9.73E+02,9.73E+02,9.73E+02,9.73E+02,9.73E+02,9.73E+02,9.74E+02,9.74E+02,9.74E+02,9.74E+02,9.74E+02,9.74E+02,9.74E+02,9.75E+02,9.75E+02,9.75E+02,9.75E+02,9.75E+02,9.76E+02,9.76E+02,9.76E+02,9.77E+02,9.77E+02,9.78E+02,9.78E+02,9.79E+02,9.79E+02,9.80E+02,9.81E+02,9.81E+02,9.82E+02,9.82E+02,9.83E+02,9.83E+02,9.84E+02,9.84E+02,9.85E+02,9.85E+02,9.86E+02,9.87E+02,9.87E+02,9.88E+02,9.88E+02,9.89E+02,9.89E+02,9.90E+02,9.90E+02,9.91E+02,9.91E+02,9.92E+02,9.92E+02,9.93E+02,9.93E+02,9.94E+02,9.94E+02,9.95E+02,9.95E+02,9.96E+02,9.96E+02,9.97E+02,9.97E+02,9.98E+02,9.98E+02,9.98E+02,9.99E+02,9.99E+02,9.99E+02,1.00E+03,1.00E+03,1.00E+03,1.00E+03,1.00E+03,1.00E+03,1.00E+03,1.00E+03,1.00E+03,1.00E+03,1.00E+03,1.00E+03,1.00E+03,1.00E+03,1.00E+03,1.00E+03,1.00E+03,1.00E+03,1.00E+03,1.00E+03,1.00E+03,9.99E+02,9.99E+02,9.99E+02,9.98E+02,9.98E+02,9.97E+02,9.97E+02,9.96E+02,9.96E+02,9.96E+02,9.95E+02,9.95E+02,9.94E+02,9.94E+02,9.94E+02,9.93E+02,9.93E+02,9.93E+02,9.93E+02,9.92E+02,9.92E+02,9.92E+02,9.92E+02,9.92E+02,9.92E+02,9.91E+02,9.91E+02,9.91E+02,9.91E+02,9.91E+02,9.91E+02,9.91E+02,9.91E+02,9.91E+02,9.91E+02,9.91E+02,9.91E+02,9.91E+02,9.91E+02,9.92E+02,9.92E+02,9.92E+02,9.92E+02,9.92E+02,9.92E+02,9.92E+02,9.92E+02,9.93E+02,9.93E+02,9.93E+02,9.93E+02,9.93E+02,9.94E+02,9.94E+02,9.94E+02,9.94E+02,9.94E+02,9.94E+02,9.95E+02,9.95E+02,9.95E+02,9.95E+02,9.95E+02,9.95E+02,9.95E+02,9.95E+02,9.95E+02,9.95E+02,9.95E+02,9.95E+02,9.95E+02,9.95E+02,9.95E+02,9.95E+02,9.95E+02,9.95E+02,9.95E+02,9.95E+02,9.95E+02,9.95E+02,9.95E+02,9.95E+02,9.95E+02,9.95E+02,9.94E+02,9.94E+02,9.94E+02,9.94E+02,9.94E+02,9.94E+02,9.93E+02,9.93E+02,9.93E+02,9.93E+02,9.92E+02,9.92E+02,9.92E+02,9.91E+02,9.91E+02,9.91E+02,9.91E+02,9.90E+02,9.90E+02,9.90E+02,9.89E+02,9.89E+02,9.89E+02,9.89E+02,9.88E+02,9.88E+02,9.88E+02,9.88E+02,9.87E+02,9.87E+02,9.87E+02,9.87E+02,9.86E+02,9.86E+02,9.86E+02,9.86E+02,9.86E+02,9.86E+02,9.87E+02,9.87E+02,9.87E+02,9.87E+02,9.87E+02,9.88E+02,9.88E+02,9.88E+02,9.88E+02,9.89E+02,9.89E+02,9.89E+02,9.90E+02,9.90E+02,9.90E+02,9.90E+02,9.91E+02,9.91E+02,9.91E+02,9.91E+02,9.91E+02,9.92E+02,9.92E+02,9.92E+02,9.92E+02,9.92E+02,9.93E+02,9.93E+02,9.93E+02,9.93E+02,9.93E+02,9.93E+02,9.94E+02,9.94E+02,9.94E+02,9.94E+02,9.94E+02,9.94E+02,9.94E+02,9.95E+02,9.95E+02,9.95E+02,9.95E+02,9.95E+02,9.95E+02,9.95E+02,9.96E+02
0.00E+00,0.00E+00,0.00E+00,0.00E+00,0.00E+00,0.00E+00,0.00E+00,0.00E+00,0.00E+00,0.00E+00,0.00E+00,0.00E+00,0.00E+00,0.00E+00,9.75E+02,9.76E+02,9.77E+02,9.77E+02,9.77E+02,9.77E+02,9.77E+02,9.76E+02,9.76E+02,9.76E+02,9.76E+02,9.76E+02,9.75E+02,9.75E+02,9.75E+02,9.75E+02,9.75E+02,9.75E+02,9.75E+02,9.74E+02,9.74E+02,9.74E+02,9.74E+02,9.74E+02,9.74E+02,9.74E+02,9.74E+02,9.74E+02,9.74E+02,9.73E+02,9.73E+02,9.73E+02,9.73E+02,9.73E+02,9.73E+02,9.73E+02,9.73E+02,9.73E+02,9.73E+02,9.73E+02,9.73E+02,9.73E+02,9.73E+02,9.73E+02,9.73E+02,9.73E+02,9.73E+02,9.73E+02,9.73E+02,9.73E+02,9.73E+02,9.73E+02,9.73E+02,9.73E+02,9.73E+02,9.73E+02,9.73E+02,9.73E+02,9.73E+02,9.73E+02,9.73E+02,9.73E+02,9.73E+02,9.74E+02,9.74E+02,9.74E+02,9.74E+02,9.74E+02,9.74E+02,9.74E+02,9.74E+02,9.74E+02,9.75E+02,9.75E+02,9.75E+02,9.75E+02,9.75E+02,9.76E+02,9.76E+02,9.76E+02,9.76E+02,9.77E+02,9.77E+02,9.78E+02,9.78E+02,9.79E+02,9.79E+02,9.80E+02,9.81E+02,9.81E+02,9.82E+02,9.82E+02,9.83E+02,9.83E+02,9.84E+02,9.84E+02,9.85E+02,9.85E+02,9.86E+02,9.86E+02,9.87E+02,9.87E+02,9.88E+02,9.89E+02,9.89E+02,9.90E+02,9.90E+02,9.91E+02,9.91E+02,9.92E+02,9.92E+02,9.93E+02,9.93E+02,9.94E+02,9.94E+02,9.95E+02,9.95E+02,9.96E+02,9.96E+02,9.96E+02,9.97E+02,9.97E+02,9.98E+02,9.98E+02,9.98E+02,9.99E+02,9.99E+02,9.99E+02,9.99E+02,1.00E+03,1.00E+03,1.00E+03,1.00E+03,1.00E+03,1.00E+03,1.00E+03,1.00E+03,1.00E+03,1.00E+03,1.00E+03,1.00E+03,1.00E+03,1.00E+03,1.00E+03,1.00E+03,1.00E+03,1.00E+03,9.99E+02,9.99E+02,9.99E+02,9.98E+02,9.98E+02,9.98E+02,9.97E+02,9.97E+02,9.96E+02,9.96E+02,9.96E+02,9.95E+02,9.95E+02,9.94E+02,9.94E+02,9.94E+02,9.93E+02,9.93E+02,9.93E+02,9.92E+02,9.92E+02,9.92E+02,9.92E+02,9.92E+02,9.92E+02,9.91E+02,9.91E+02,9.91E+02,9.91E+02,9.91E+02,9.91E+02,9.91E+02,9.91E+02,9.91E+02,9.91E+02,9.91E+02,9.91E+02,9.91E+02,9.91E+02,9.91E+02,9.92E+02,9.92E+02,9.92E+02,9.92E+02,9.92E+02,9.92E+02,9.92E+02,9.92E+02,9.93E+02,9.93E+02,9.93E+02,9.93E+02,9.93E+02,9.94E+02,9.94E+02,9.94E+02,9.94E+02,9.94E+02,9.95E+02,9.95E+02,9.95E+02,9.95E+02,9.95E+02,9.95E+02,9.95E+02,9.95E+02,9.95E+02,9.95E+02,9.96E+02,9.96E+02,9.96E+02,9.96E+02,9.96E+02,9.96E+02,9.96E+02,9.95E+02,9.95E+02,9.95E+02,9.95E+02,9.95E+02,9.95E+02,9.95E+02,9.95E+02,9.95E+02,9.95E+02,9.94E+02,9.94E+02,9.94E+02,9.94E+02,9.94E+02,9.93E+02,9.93E+02,9.93E+02,9.93E+02,9.92E+02,9.92E+02,9.92E+02,9.92E+02,9.91E+02,9.91E+02,9.91E+02,9.90E+02,9.90E+02,9.90E+02,9.89E+02,9.89E+02,9.89E+02,9.89E+02,9.88E+02,9.88E+02,9.88E+02,9.87E+02,9.87E+02,9.87E+02,9.87E+02,9.86E+02,9.86E+02,9.86E+02,9.86E+02,9.86E+02,9.86E+02,9.86E+02,9.86E+02,9.86E+02,9.86E+02,9.87E+02,9.87E+02,9.87E+02,9.87E+02,9.88E+02,9.88E+02,9.88E+02,9.89E+02,9.89E+02,9.89E+02,9.89E+02,9.90E+02,9.90E+02,9.90E+02,9.90E+02,9.91E+02,9.91E+02,9.91E+02,9.91E+02,9.92E+02,9.92E+02,9.92E+02,9.92E+02,9.92E+02,9.93E+02,9.93E+02,9.93E+02,9.93E+02,9.93E+02,9.93E+02,9.93E+02,9.94E+02,9.94E+02,9.94E+02,9.94E+02,9.94E+02,9.94E+02,9.95E+02,9.95E+02,9.95E+02,9.95E+02,9.95E+02,9.95E+02,9.95E+02,9.95E+02
0.00E+00,0.00E+00,0.00E+00,0.00E+00,0.00E+00,0.00E+00,0.00E+00,0.00E+00,0.00E+00,0.00E+00,0.00E+00,0.00E+00,0.00E+00,0.00E+00,9.76E+02,9.77E+02,9.78E+02,9.77E+02,9.77E+02,9.77E+02,9.77E+02,9.76E+02,9.76E+02,9.76E+02,9.76E+02,9.76E+02,9.75E+02,9.75E+02,9.75E+02,9.75E+02,9.75E+02,9.75E+02,9.75E+02,9.75E+02,9.74E+02,9.74E+02,9.74E+02,9.74E+02,9.74E+02,9.74E+02,9.74E+02,9.74E+02,9.74E+02,9.74E+02,9.74E+02,9.74E+02,9.73E+02,9.73E+02,9.73E+02,9.73E+02,9.73E+02,9.73E+02,9.73E+02,9.73E+02,9.73E+02,9.73E+02,9.73E+02,9.73E+02,9.73E+02,9.73E+02,9.73E+02,9.73E+02,9.73E+02,9.73E+02,9.73E+02,9.73E+02,9.73E+02,9.73E+02,9.73E+02,9.73E+02,9.73E+02,9.73E+02,9.73E+02,9.73E+02,9.74E+02,9.74E+02,9.74E+02,9.74E+02,9.74E+02,9.74E+02,9.74E+02,9.74E+02,9.74E+02,9.74E+02,9.75E+02,9.75E+02,9.75E+02,9.75E+02,9.75E+02,9.75E+02,9.76E+02,9.76E+02,9.76E+02,9.76E+02,9.77E+02,9.77E+02,9.77E+02,9.78E+02,9.78E+02,9.79E+02,9.79E+02,9.80E+02,9.81E+02,9.81E+02,9.82E+02,9.82E+02,9.83E+02,9.83E+02,9.84E+02,9.84E+02,9.85E+02,9.85E+02,9.86E+02,9.86E+02,9.87E+02,9.87E+02,9.88E+02,9.88E+02,9.89E+02,9.89E+02,9.90E+02,9.90E+02,9.91E+02,9.91E+02,9.92E+02,9.92E+02,9.93E+02,9.93E+02,9.94E+02,9.94E+02,9.95E+02,9.95E+02,9.96E+02,9.96E+02,9.97E+02,9.97E+02,9.97E+02,9.98E+02,9.98E+02,9.98E+02,9.98E+02,9.99E+02,9.99E+02,9.99E+02,9.99E+02,9.99E+02,9.99E+02,1.00E+03,1.00E+03,1.00E+03,1.00E+03,1.00E+03,1.00E+03,1.00E+03,1.00E+03,1.00E+03,1.00E+03,1.00E+03,1.00E+03,9.99E+02,9.99E+02,9.99E+02,9.99E+02,9.98E+02,9.98E+02,9.98E+02,9.97E+02,9.97E+02,9.97E+02,9.96E+02,9.96E+02,9.95E+02,9.95E+02,9.95E+02,9.94E+02,9.94E+02,9.93E+02,9.93E+02,9.93E+02,9.93E+02,9.92E+02,9.92E+02,9.92E+02,9.92E+02,9.92E+02,9.91E+02,9.91E+02,9.91E+02,9.91E+02,9.91E+02,9.91E+02,9.91E+02,9.91E+02,9.91E+02,9.91E+02,9.91E+02,9.91E+02,9.91E+02,9.91E+02,9.91E+02,9.91E+02,9.92E+02,9.92E+02,9.92E+02,9.92E+02,9.92E+02,9.92E+02,9.92E+02,9.92E+02,9.93E+02,9.93E+02,9.93E+02,9.93E+02,9.93E+02,9.94E+02,9.94E+02,9.94E+02,9.94E+02,9.95E+02,9.95E+02,9.95E+02,9.95E+02,9.95E+02,9.95E+02,9.95E+02,9.95E+02,9.96E+02,9.96E+02,9.96E+02,9.96E+02,9.96E+02,9.96E+02,9.96E+02,9.96E+02,9.96E+02,9.96E+02,9.96E+02,9.96E+02,9.95E+02,9.95E+02,9.95E+02,9.95E+02,9.95E+02,9.95E+02,9.95E+02,9.95E+02,9.94E+02,9.94E+02,9.94E+02,9.94E+02,9.94E+02,9.93E+02,9.93E+02,9.93E+02,9.93E+02,9.92E+02,9.92E+02,9.92E+02,9.91E+02,9.91E+02,9.91E+02,9.90E+02,9.90E+02,9.90E+02,9.89E+02,9.89E+02,9.89E+02,9.89E+02,9.88E+02,9.88E+02,9.88E+02,9.87E+02,9.87E+02,9.87E+02,9.86E+02,9.86E+02,9.86E+02,9.86E+02,9.86E+02,9.85E+02,9.85E+02,9.85E+02,9.86E+02,9.86E+02,9.86E+02,9.86E+02,9.86E+02,9.86E+02,9.87E+02,9.87E+02,9.87E+02,9.88E+02,9.88E+02,9.88E+02,9.89E+02,9.89E+02,9.89E+02,9.90E+02,9.90E+02,9.90E+02,9.90E+02,9.91E+02,9.91E+02,9.91E+02,9.91E+02,9.91E+02,9.92E+02,9.92E+02,9.92E+02,9.92E+02,9.92E+02,9.93E+02,9.93E+02,9.93E+02,9.93E+02,9.93E+02,9.93E+02,9.94E+02,9.94E+02,9.94E+02,9.94E+02,9.94E+02,9.94E+02,9.94E+02,9.95E+02,9.95E+02,9.95E+02,9.95E+02,9.95E+02,9.95E+02,9.95E+02
0.00E+00,0.00E+00,0.00E+00,0.00E+00,0.00E+00,0.00E+00,0.00E+00,0.00E+00,0.00E+00,0.00E+00,0.00E+00,0.00E+00,0.00E+00,9.74E+02,9.76E+02,9.77E+02,9.78E+02,9.77E+02,9.77E+02,9.77E+02,9.77E+02,9.76E+02,9.76E+02,9.76E+02,9.76E+02,9.76E+02,9.76E+02,9.75E+02,9.75E+02,9.75E+02,9.75E+02,9.75E+02,9.75E+02,9.75E+02,9.75E+02,9.75E+02,9.74E+02,9.74E+02,9.74E+02,9.74E+02,9.74E+02,9.74E+02,9.74E+02,9.74E+02,9.74E+02,9.74E+02,9.74E+02,9.74E+02,9.74E+02,9.74E+02,9.74E+02,9.73E+02,9.73E+02,9.73E+02,9.73E+02,9.73E+02,9.73E+02,9.73E+02,9.73E+02,9.73E+02,9.73E+02,9.73E+02,9.73E+02,9.73E+02,9.73E+02,9.73E+02,9.73E+02,9.73E+02,9.73E+02,9.73E+02,9.74E+02,9.74E+02,9.74E+02,9.74E+02,9.74E+02,9.74E+02,9.74E+02,9.74E+02,9.74E+02,9.74E+02,9.74E+02,9.75E+02,9.75E+02,9.75E+02,9.75E+02,9.75E+02,9.75E+02,9.75E+02,9.75E+02,9.76E+02,9.76E+02,9.76E+02,9.76E+02,9.76E+02,9.77E+02,9.77E+02,9.77E+02,9.78E+02,9.78E+02,9.79E+02,9.79E+02,9.80E+02,9.81E+02,9.81E+02,9.82E+02,9.82E+02,9.83E+02,9.83E+02,9.84E+02,9.84E+02,9.85E+02,9.85E+02,9.86E+02,9.86E+02,9.87E+02,9.87E+02,9.88E+02,9.88E+02,9.89E+02,9.89E+02,9.90E+02,9.90E+02,9.91E+02,9.91E+02,9.92E+02,9.92E+02,9.93E+02,9.93E+02,9.94E+02,9.94E+02,9.94E+02,9.95E+02,9.95E+02,9.96E+02,9.96E+02,9.96E+02,9.97E+02,9.97E+02,9.97E+02,9.98E+02,9.98E+02,9.98E+02,9.98E+02,9.98E+02,9.99E+02,9.99E+02,9.99E+02,9.99E+02,9.99E+02,9.99E+02,9.99E+02,9.99E+02,9.99E+02,9.99E+02,9.99E+02,9.99E+02,9.99E+02,9.99E+02,9.99E+02,9.99E+02,9.99E+02,9.99E+02,9.98E+02,9.98E+02,9.98E+02,9.98E+02,9.97E+02,9.97E+02,9.97E+02,9.96E+02,9.96E+02,9.95E+02,9.95E+02,9.95E+02,9.94E+02,9.94E+02,9.93E+02,9.93E+02,9.93E+02,9.92E+02,9.92E+02,9.92E+02,9.92E+02,9.92E+02,9.91E+02,9.91E+02,9.91E+02,9.91E+02,9.91E+02,9.91E+02,9.91E+02,9.91E+02,9.91E+02,9.91E+02,9.91E+02,9.91E+02,9.91E+02,9.91E+02,9.91E+02,9.91E+02,9.91E+02,9.92E+02,9.92E+02,9.92E+02,9.92E+02,9.92E+02,9.92E+02,9.92E+02,9.93E+02,9.93E+02,9.93E+02,9.93E+02,9.93E+02,9.94E+02,9.94E+02,9.94E+02,9.94E+02,9.94E+02,9.95E+02,9.95E+02,9.95E+02,9.95E+02,9.95E+02,9.95E+02,9.96E+02,9.96E+02,9.96E+02,9.96E+02,9.96E+02,9.96E+02,9.96E+02,9.96E+02,9.96E+02,9.96E+02,9.96E+02,9.96E+02,9.96E+02,9.96E+02,9.96E+02,9.95E+02,9.95E+02,9.95E+02,9.95E+02,9.95E+02,9.95E+02,9.95E+02,9.94E+02,9.94E+02,9.94E+02,9.94E+02,9.93E+02,9.93E+02,9.93E+02,9.93E+02,9.92E+02,9.92E+02,9.92E+02,9.92E+02,9.91E+02,9.91E+02,9.91E+02,9.90E+02,9.90E+02,9.90E+02,9.89E+02,9.89E+02,9.89E+02,9.88E+02,9.88E+02,9.88E+02,9.87E+02,9.87E+02,9.87E+02,9.86E+02,9.86E+02,9.86E+02,9.86E+02,9.85E+02,9.85E+02,9.85E+02,9.85E+02,9.85E+02,9.85E+02,9.85E+02,9.85E+02,9.86E+02,9.86E+02,9.86E+02,9.86E+02,9.87E+02,9.87E+02,9.88E+02,9.88E+02,9.88E+02,9.88E+02,9.89E+02,9.89E+02,9.89E+02,9.90E+02,9.90E+02,9.90E+02,9.90E+02,9.91E+02,9.91E+02,9.91E+02,9.91E+02,9.92E+02,9.92E+02,9.92E+02,9.92E+02,9.92E+02,9.93E+02,9.93E+02,9.93E+02,9.93E+02,9.93E+02,9.93E+02,9.93E+02,9.94E+02,9.94E+02,9.94E+02,9.94E+02,9.94E+02,9.94E+02,9.95E+02,9.95E+02,9.95E+02,9.95E+02,9.95E+02,9.95E+02,9.95E+02
0.00E+00,0.00E+00,0.00E+00,0.00E+00,0.00E+00,0.00E+00,0.00E+00,0.00E+00,0.00E+00,0.00E+00,0.00E+00,0.00E+00,0.00E+00,9.75E+02,9.76E+02,9.77E+02,9.78E+02,9.77E+02,9.77E+02,9.77E+02,9.77E+02,9.77E+02,9.76E+02,9.76E+02,9.76E+02,9.76E+02,9.76E+02,9.76E+02,9.75E+02,9.75E+02,9.75E+02,9.75E+02,9.75E+02,9.75E+02,9.75E+02,9.75E+02,9.75E+02,9.74E+02,9.74E+02,9.74E+02,9.74E+02,9.74E+02,9.74E+02,9.74E+02,9.74E+02,9.74E+02,9.74E+02,9.74E+02,9.74E+02,9.74E+02,9.74E+02,9.74E+02,9.74E+02,9.74E+02,9.74E+02,9.74E+02,9.74E+02,9.74E+02,9.74E+02,9.74E+02,9.74E+02,9.74E+02,9.74E+02,9.74E+02,9.74E+02,9.74E+02,9.74E+02,9.74E+02,9.74E+02,9.74E+02,9.74E+02,9.74E+02,9.74E+02,9.74E+02,9.74E+02,9.74E+02,9.74E+02,9.74E+02,9.75E+02,9.75E+02,9.75E+02,9.75E+02,9.75E+02,9.75E+02,9.75E+02,9.75E+02,9.75E+02,9.75E+02,9.76E+02,9.76E+02,9.76E+02,9.76E+02,9.76E+02,9.77E+02,9.77E+02,9.77E+02,9.77E+02,9.78E+02,9.78E+02,9.79E+02,9.79E+02,9.80E+02,9.81E+02,9.81E+02,9.82E+02,9.82E+02,9.83E+02,9.83E+02,9.84E+02,9.84E+02,9.85E+02,9.85E+02,9.86E+02,9.86E+02,9.87E+02,9.87E+02,9.88E+02,9.88E+02,9.89E+02,9.89E+02,9.90E+02,9.90E+02,9.91E+02,9.91E+02,9.91E+02,9.92E+02,9.92E+02,9.93E+02,9.93E+02,9.94E+02,9.94E+02,9.95E+02,9.95E+02,9.95E+02,9.96E+02,9.96E+02,9.96E+02,9.97E+02,9.97E+02,9.97E+02,9.97E+02,9.97E+02,9.98E+02,9.98E+02,9.98E+02,9.98E+02,9.98E+02,9.98E+02,9.99E+02,9.99E+02,9.99E+02,9.99E+02,9.99E+02,9.99E+02,9.99E+02,9.99E+02,9.99E+02,9.99E+02,9.98E+02,9.98E+02,9.98E+02,9.98E+02,9.98E+02,9.98E+02,9.97E+02,9.97E+02,9.97E+02,9.97E+02,9.96E+02,9.96E+02,9.96E+02,9.95E+02,9.95E+02,9.95E+02,9.94E+02,9.94E+02,9.93E+02,9.93E+02,9.93E+02,9.92E+02,9.92E+02,9.92E+02,9.92E+02,9.91E+02,9.91E+02,9.91E+02,9.91E+02,9.91E+02,9.91E+02,9.91E+02,9.91E+02,9.91E+02,9.91E+02,9.91E+02,9.91E+02,9.91E+02,9.91E+02,9.91E+02,9.91E+02,9.91E+02,9.91E+02,9.92E+02,9.92E+02,9.92E+02,9.92E+02,9.92E+02,9.92E+02,9.92E+02,9.93E+02,9.93E+02,9.93E+02,9.93E+02,9.93E+02,9.94E+02,9.94E+02,9.94E+02,9.94E+02,9.95E+02,9.95E+02,9.95E+02,9.95E+02,9.95E+02,9.95E+02,9.96E+02,9.96E+02,9.96E+02,9.96E+02,9.96E+02,9.96E+02,9.96E+02,9.96E+02,9.96E+02,9.96E+02,9.96E+02,9.96E+02,9.96E+02,9.96E+02,9.96E+02,9.96E+02,9.96E+02,9.95E+02,9.95E+02,9.95E+02,9.95E+02,9.95E+02,9.95E+02,9.94E+02,9.94E+02,9.94E+02,9.94E+02,9.93E+02,9.93E+02,9.93E+02,9.93E+02,9.92E+02,9.92E+02,9.92E+02,9.91E+02,9.91E+02,9.91E+02,9.90E+02,9.90E+02,9.90E+02,9.89E+02,9.89E+02,9.89E+02,9.88E+02,9.88E+02,9.88E+02,9.87E+02,9.87E+02,9.87E+02,9.86E+02,9.86E+02,9.86E+02,9.85E+02,9.85E+02,9.85E+02,9.85E+02,9.85E+02,9.84E+02,9.84E+02,9.85E+02,9.85E+02,9.85E+02,9.85E+02,9.86E+02,9.86E+02,9.86E+02,9.87E+02,9.87E+02,9.87E+02,9.88E+02,9.88E+02,9.88E+02,9.89E+02,9.89E+02,9.89E+02,9.90E+02,9.90E+02,9.90E+02,9.90E+02,9.91E+02,9.91E+02,9.91E+02,9.91E+02,9.92E+02,9.92E+02,9.92E+02,9.92E+02,9.92E+02,9.92E+02,9.93E+02,9.93E+02,9.93E+02,9.93E+02,9.93E+02,9.93E+02,9.94E+02,9.94E+02,9.94E+02,9.94E+02,9.94E+02,9.94E+02,9.94E+02,9.95E+02,9.95E+02,9.95E+02,9.95E+02,9.95E+02,9.95E+02
0.00E+00,0.00E+00,0.00E+00,0.00E+00,0.00E+00,0.00E+00,0.00E+00,0.00E+00,0.00E+00,0.00E+00,0.00E+00,0.00E+00,0.00E+00,9.75E+02,9.76E+02,9.77E+02,9.78E+02,9.77E+02,9.77E+02,9.77E+02,9.77E+02,9.77E+02,9.76E+02,9.76E+02,9.76E+02,9.76E+02,9.76E+02,9.76E+02,9.76E+02,9.75E+02,9.75E+02,9.75E+02,9.75E+02,9.75E+02,9.75E+02,9.75E+02,9.75E+02,9.75E+02,9.75E+02,9.75E+02,9.74E+02,9.74E+02,9.74E+02,9.74E+02,9.74E+02,9.74E+02,9.74E+02,9.74E+02,9.74E+02,9.74E+02,9.74E+02,9.74E+02,9.74E+02,9.74E+02,9.74E+02,9.74E+02,9.74E+02,9.74E+02,9.74E+02,9.74E+02,9.74E+02,9.74E+02,9.74E+02,9.74E+02,9.74E+02,9.74E+02,9.74E+02,9.74E+02,9.74E+02,9.74E+02,9.74E+02,9.74E+02,9.74E+02,9.74E+02,9.74E+02,9.75E+02,9.75E+02,9.75E+02,9.75E+02,9.75E+02,9.75E+02,9.75E+02,9.75E+02,9.75E+02,9.75E+02,9.76E+02,9.76E+02,9.76E+02,9.76E+02,9.76E+02,9.76E+02,9.76E+02,9.77E+02,9.77E+02,9.77E+02,9.77E+02,9.78E+02,9.78E+02,9.78E+02,9.79E+02,9.79E+02,9.80E+02,9.81E+02,9.81E+02,9.82E+02,9.82E+02,9.83E+02,9.83E+02,9.84E+02,9.84E+02,9.85E+02,9.85E+02,9.86E+02,9.86E+02,9.87E+02,9.87E+02,9.88E+02,9.88E+02,9.88E+02,9.89E+02,9.89E+02,9.90E+02,9.90E+02,9.91E+02,9.91E+02,9.92E+02,9.92E+02,9.93E+02,9.93E+02,9.93E+02,9.94E+02,9.94E+02,9.95E+02,9.95E+02,9.95E+02,9.95E+02,9.96E+02,9.96E+02,9.96E+02,9.97E+02,9.97E+02,9.97E+02,9.97E+02,9.97E+02,9.98E+02,9.98E+02,9.98E+02,9.98E+02,9.98E+02,9.98E+02,9.98E+02,9.98E+02,9.98E+02,9.98E+02,9.98E+02,9.98E+02,9.98E+02,9.98E+02,9.98E+02,9.98E+02,9.98E+02,9.98E+02,9.97E+02,9.97E+02,9.97E+02,9.97E+02,9.97E+02,9.96E+02,9.96E+02,9.96E+02,9.95E+02,9.95E+02,9.95E+02,9.94E+02,9.94E+02,9.94E+02,9.93E+02,9.93E+02,9.93E+02,9.92E+02,9.92E+02,9.92E+02,9.91E+02,9.91E+02,9.91E+02,9.91E+02,9.91E+02,9.91E+02,9.91E+02,9.91E+02,9.91E+02,9.91E+02,9.91E+02,9.91E+02,9.91E+02,9.91E+02,9.91E+02,9.91E+02,9.91E+02,9.91E+02,9.91E+02,9.92E+02,9.92E+02,9.92E+02,9.92E+02,9.92E+02,9.92E+02,9.93E+02,9.93E+02,9.93E+02,9.93E+02,9.93E+02,9.94E+02,9.94E+02,9.94E+02,9.94E+02,9.95E+02,9.95E+02,9.95E+02,9.95E+02,9.95E+02,9.96E+02,9.96E+02,9.96E+02,9.96E+02,9.96E+02,9.96E+02,9.96E+02,9.96E+02,9.96E+02,9.96E+02,9.96E+02,9.96E+02,9.96E+02,9.96E+02,9.96E+02,9.96E+02,9.96E+02,9.96E+02,9.96E+02,9.96E+02,9.95E+02,9.95E+02,9.95E+02,9.95E+02,9.95E+02,9.94E+02,9.94E+02,9.94E+02,9.94E+02,9.93E+02,9.93E+02,9.93E+02,9.93E+02,9.92E+02,9.92E+02,9.92E+02,9.91E+02,9.91E+02,9.91E+02,9.90E+02,9.90E+02,9.90E+02,9.89E+02,9.89E+02,9.89E+02,9.88E+02,9.88E+02,9.87E+02,9.87E+02,9.87E+02,9.86E+02,9.86E+02,9.86E+02,9.85E+02,9.85E+02,9.85E+02,9.84E+02,9.84E+02,9.84E+02,9.84E+02,9.84E+02,9.84E+02,9.84E+02,9.85E+02,9.85E+02,9.85E+02,9.86E+02,9.86E+02,9.86E+02,9.87E+02,9.87E+02,9.88E+02,9.88E+02,9.88E+02,9.89E+02,9.89E+02,9.89E+02,9.90E+02,9.90E+02,9.90E+02,9.90E+02,9.91E+02,9.91E+02,9.91E+02,9.91E+02,9.91E+02,9.92E+02,9.92E+02,9.92E+02,9.92E+02,9.92E+02,9.93E+02,9.93E+02,9.93E+02,9.93E+02,9.93E+02,9.93E+02,9.94E+02,9.94E+02,9.94E+02,9.94E+02,9.94E+02,9.94E+02,9.94E+02,9.95E+02,9.95E+02,9.95E+02,9.95E+02,9.95E+02,9.95E+02
0.00E+00,0.00E+00,0.00E+00,0.00E+00,0.00E+00,0.00E+00,0.00E+00,0.00E+00,0.00E+00,0.00E+00,0.00E+00,0.00E+00,0.00E+00,9.75E+02,9.76E+02,9.77E+02,9.78E+02,9.78E+02,9.77E+02,9.77E+02,9.77E+02,9.77E+02,9.76E+02,9.76E+02,9.76E+02,9.76E+02,9.76E+02,9.76E+02,9.76E+02,9.76E+02,9.75E+02,9.75E+02,9.75E+02,9.75E+02,9.75E+02,9.75E+02,9.75E+02,9.75E+02,9.75E+02,9.75E+02,9.75E+02,9.75E+02,9.75E+02,9.74E+02,9.74E+02,9.74E+02,9.74E+02,9.74E+02,9.74E+02,9.74E+02,9.74E+02,9.74E+02,9.74E+02,9.74E+02,9.74E+02,9.74E+02,9.74E+02,9.74E+02,9.74E+02,9.74E+02,9.74E+02,9.74E+02,9.74E+02,9.74E+02,9.74E+02,9.74E+02,9.74E+02,9.74E+02,9.74E+02,9.74E+02,9.74E+02,9.74E+02,9.75E+02,9.75E+02,9.75E+02,9.75E+02,9.75E+02,9.75E+02,9.75E+02,9.75E+02,9.75E+02,9.75E+02,9.75E+02,9.76E+02,9.76E+02,9.76E+02,9.76E+02,9.76E+02,9.76E+02,9.76E+02,9.76E+02,9.77E+02,9.77E+02,9.77E+02,9.77E+02,9.77E+02,9.78E+02,9.78E+02,9.78E+02,9.79E+02,9.79E+02,9.80E+02,9.81E+02,9.81E+02,9.82E+02,9.82E+02,9.83E+02,9.83E+02,9.84E+02,9.84E+02,9.85E+02,9.85E+02,9.85E+02,9.86E+02,9.86E+02,9.87E+02,9.87E+02,9.88E+02,9.88E+02,9.89E+02,9.89E+02,9.90E+02,9.90E+02,9.91E+02,9.91E+02,9.91E+02,9.92E+02,9.92E+02,9.93E+02,9.93E+02,9.93E+02,9.94E+02,9.94E+02,9.94E+02,9.95E+02,9.95E+02,9.95E+02,9.96E+02,9.96E+02,9.96E+02,9.96E+02,9.96E+02,9.97E+02,9.97E+02,9.97E+02,9.97E+02,9.97E+02,9.97E+02,9.97E+02,9.98E+02,9.98E+02,9.98E+02,9.98E+02,9.98E+02,9.98E+02,9.98E+02,9.98E+02,9.98E+02,9.97E+02,9.97E+02,9.97E+02,9.97E+02,9.97E+02,9.97E+02,9.96E+02,9.96E+02,9.96E+02,9.96E+02,9.96E+02,9.95E+02,9.95E+02,9.95E+02,9.95E+02,9.94E+02,9.94E+02,9.94E+02,9.93E+02,9.93E+02,9.93E+02,9.92E+02,9.92E+02,9.92E+02,9.91E+02,9.91E+02,9.91E+02,9.91E+02,9.91E+02,9.91E+02,9.91E+02,9.91E+02,9.91E+02,9.91E+02,9.91E+02,9.91E+02,9.91E+02,9.91E+02,9.91E+02,9.91E+02,9.91E+02,9.91E+02,9.91E+02,9.92E+02,9.92E+02,9.92E+02,9.92E+02,9.92E+02,9.92E+02,9.93E+02,9.93E+02,9.93E+02,9.93E+02,9.93E+02,9.94E+02,9.94E+02,9.94E+02,9.94E+02,9.95E+02,9.95E+02,9.95E+02,9.95E+02,9.96E+02,9.96E+02,9.96E+02,9.96E+02,9.96E+02,9.96E+02,9.96E+02,9.96E+02,9.96E+02,9.96E+02,9.96E+02,9.96E+02,9.96E+02,9.96E+02,9.96E+02,9.96E+02,9.96E+02,9.96E+02,9.96E+02,9.96E+02,9.96E+02,9.95E+02,9.95E+02,9.95E+02,9.95E+02,9.95E+02,9.94E+02,9.94E+02,9.94E+02,9.94E+02,9.93E+02,9.93E+02,9.93E+02,9.92E+02,9.92E+02,9.92E+02,9.92E+02,9.91E+02,9.91E+02,9.91E+02,9.90E+02,9.90E+02,9.90E+02,9.89E+02,9.89E+02,9.89E+02,9.88E+02,9.88E+02,9.87E+02,9.87E+02,9.87E+02,9.86E+02,9.86E+02,9.85E+02,9.85E+02,9.85E+02,9.84E+02,9.84E+02,9.84E+02,9.84E+02,9.83E+02,9.83E+02,9.84E+02,9.84E+02,9.84E+02,9.85E+02,9.85E+02,9.85E+02,9.86E+02,9.86E+02,9.87E+02,9.87E+02,9.87E+02,9.88E+02,9.88E+02,9.89E+02,9.89E+02,9.89E+02,9.89E+02,9.90E+02,9.90E+02,9.90E+02,9.91E+02,9.91E+02,9.91E+02,9.91E+02,9.91E+02,9.92E+02,9.92E+02,9.92E+02,9.92E+02,9.92E+02,9.93E+02,9.93E+02,9.93E+02,9.93E+02,9.93E+02,9.93E+02,9.94E+02,9.94E+02,9.94E+02,9.94E+02,9.94E+02,9.94E+02,9.94E+02,9.94E+02,9.95E+02,9.95E+02,9.95E+02,9.95E+02,9.95E+02
0.00E+00,0.00E+00,0.00E+00,0.00E+00,0.00E+00,0.00E+00,0.00E+00,0.00E+00,0.00E+00,0.00E+00,0.00E+00,0.00E+00,0.00E+00,9.75E+02,9.76E+02,9.77E+02,9.78E+02,9.78E+02,9.77E+02,9.77E+02,9.77E+02,9.77E+02,9.77E+02,9.76E+02,9.76E+02,9.76E+02,9.76E+02,9.76E+02,9.76E+02,9.76E+02,9.76E+02,9.75E+02,9.75E+02,9.75E+02,9.75E+02,9.75E+02,9.75E+02,9.75E+02,9.75E+02,9.75E+02,9.75E+02,9.75E+02,9.75E+02,9.75E+02,9.75E+02,9.75E+02,9.75E+02,9.75E+02,9.74E+02,9.74E+02,9.74E+02,9.74E+02,9.74E+02,9.74E+02,9.74E+02,9.74E+02,9.74E+02,9.74E+02,9.74E+02,9.74E+02,9.74E+02,9.74E+02,9.74E+02,9.74E+02,9.74E+02,9.74E+02,9.74E+02,9.75E+02,9.75E+02,9.75E+02,9.75E+02,9.75E+02,9.75E+02,9.75E+02,9.75E+02,9.75E+02,9.75E+02,9.75E+02,9.75E+02,9.75E+02,9.76E+02,9.76E+02,9.76E+02,9.76E+02,9.76E+02,9.76E+02,9.76E+02,9.76E+02,9.76E+02,9.77E+02,9.77E+02,9.77E+02,9.77E+02,9.77E+02,9.77E+02,9.78E+02,9.78E+02,9.78E+02,9.78E+02,9.79E+02,9.79E+02,9.80E+02,9.81E+02,9.81E+02,9.82E+02,9.82E+02,9.82E+02,9.83E+02,9.83E+02,9.84E+02,9.84E+02,9.85E+02,9.85E+02,9.86E+02,9.86E+02,9.87E+02,9.87E+02,9.88E+02,9.88E+02,9.89E+02,9.89E+02,9.89E+02,9.90E+02,9.90E+02,9.91E+02,9.91E+02,9.92E+02,9.92E+02,9.92E+02,9.93E+02,9.93E+02,9.93E+02,9.94E+02,9.94E+02,9.94E+02,9.95E+02,9.95E+02,9.95E+02,9.95E+02,9.96E+02,9.96E+02,9.96E+02,9.96E+02,9.96E+02,9.96E+02,9.97E+02,9.97E+02,9.97E+02,9.97E+02,9.97E+02,9.97E+02,9.97E+02,9.97E+02,9.97E+02,9.97E+02,9.97E+02,9.97E+02,9.97E+02,9.97E+02,9.97E+02,9.97E+02,9.97E+02,9.96E+02,9.96E+02,9.96E+02,9.96E+02,9.96E+02,9.95E+02,9.95E+02,9.95E+02,9.95E+02,9.94E+02,9.94E+02,9.94E+02,9.94E+02,9.93E+02,9.93E+02,9.93E+02,9.92E+02,9.92E+02,9.92E+02,9.91E+02,9.91E+02,9.91E+02,9.91E+02,9.91E+02,9.90E+02,9.90E+02,9.90E+02,9.90E+02,9.90E+02,9.90E+02,9.90E+02,9.91E+02,9.91E+02,9.91E+02,9.91E+02,9.91E+02,9.91E+02,9.91E+02,9.91E+02,9.92E+02,9.92E+02,9.92E+02,9.92E+02,9.92E+02,9.93E+02,9.93E+02,9.93E+02,9.93E+02,9.93E+02,9.94E+02,9.94E+02,9.94E+02,9.94E+02,9.95E+02,9.95E+02,9.95E+02,9.95E+02,9.95E+02,9.96E+02,9.96E+02,9.96E+02,9.96E+02,9.96E+02,9.96E+02,9.96E+02,9.97E+02,9.97E+02,9.97E+02,9.97E+02,9.97E+02,9.97E+02,9.97E+02,9.96E+02,9.96E+02,9.96E+02,9.96E+02,9.96E+02,9.96E+02,9.96E+02,9.95E+02,9.95E+02,9.95E+02,9.95E+02,9.95E+02,9.94E+02,9.94E+02,9.94E+02,9.94E+02,9.93E+02,9.93E+02,9.93E+02,9.92E+02,9.92E+02,9.92E+02,9.92E+02,9.91E+02,9.91E+02,9.91E+02,9.90E+02,9.90E+02,9.90E+02,9.89E+02,9.89E+02,9.88E+02,9.88E+02,9.88E+02,9.87E+02,9.87E+02,9.86E+02,9.86E+02,9.86E+02,9.85E+02,9.85E+02,9.84E+02,9.84E+02,9.84E+02,9.83E+02,9.83E+02,9.83E+02,9.83E+02,9.83E+02,9.83E+02,9.84E+02,9.84E+02,9.85E+02,9.85E+02,9.86E+02,9.86E+02,9.87E+02,9.87E+02,9.87E+02,9.88E+02,9.88E+02,9.88E+02,9.89E+02,9.89E+02,9.89E+02,9.90E+02,9.90E+02,9.90E+02,9.91E+02,9.91E+02,9.91E+02,9.91E+02,9.91E+02,9.92E+02,9.92E+02,9.92E+02,9.92E+02,9.92E+02,9.93E+02,9.93E+02,9.93E+02,9.93E+02,9.93E+02,9.93E+02,9.93E+02,9.94E+02,9.94E+02,9.94E+02,9.94E+02,9.94E+02,9.94E+02,9.94E+02,9.95E+02,9.95E+02,9.95E+02,9.95E+02,9.95E+02
0.00E+00,0.00E+00,0.00E+00,0.00E+00,0.00E+00,0.00E+00,0.00E+00,0.00E+00,0.00E+00,0.00E+00,0.00E+00,0.00E+00,0.00E+00,9.75E+02,9.76E+02,9.77E+02,9.78E+02,9.78E+02,9.77E+02,9.77E+02,9.77E+02,9.77E+02,9.77E+02,9.76E+02,9.76E+02,9.76E+02,9.76E+02,9.76E+02,9.76E+02,9.76E+02,9.76E+02,9.76E+02,9.76E+02,9.75E+02,9.75E+02,9.75E+02,9.75E+02,9.75E+02,9.75E+02,9.75E+02,9.75E+02,9.75E+02,9.75E+02,9.75E+02,9.75E+02,9.75E+02,9.75E+02,9.75E+02,9.75E+02,9.75E+02,9.75E+02,9.75E+02,9.75E+02,9.75E+02,9.75E+02,9.75E+02,9.75E+02,9.75E+02,9.75E+02,9.75E+02,9.75E+02,9.75E+02,9.75E+02,9.75E+02,9.75E+02,9.75E+02,9.75E+02,9.75E+02,9.75E+02,9.75E+02,9.75E+02,9.75E+02,9.75E+02,9.75E+02,9.75E+02,9.75E+02,9.75E+02,9.75E+02,9.76E+02,9.76E+02,9.76E+02,9.76E+02,9.76E+02,9.76E+02,9.76E+02,9.76E+02,9.76E+02,9.77E+02,9.77E+02,9.77E+02,9.77E+02,9.77E+02,9.77E+02,9.77E+02,9.78E+02,9.78E+02,9.78E+02,9.78E+02,9.78E+02,9.79E+02,9.79E+02,9.80E+02,9.80E+02,9.81E+02,9.81E+02,9.82E+02,9.82E+02,9.83E+02,9.83E+02,9.84E+02,9.84E+02,9.85E+02,9.85E+02,9.86E+02,9.86E+02,9.87E+02,9.87E+02,9.87E+02,9.88E+02,9.88E+02,9.89E+02,9.89E+02,9.90E+02,9.90E+02,9.90E+02,9.91E+02,9.91E+02,9.92E+02,9.92E+02,9.92E+02,9.93E+02,9.93E+02,9.93E+02,9.94E+02,9.94E+02,9.94E+02,9.94E+02,9.95E+02,9.95E+02,9.95E+02,9.95E+02,9.95E+02,9.96E+02,9.96E+02,9.96E+02,9.96E+02,9.96E+02,9.96E+02,9.96E+02,9.96E+02,9.97E+02,9.97E+02,9.97E+02,9.97E+02,9.97E+02,9.97E+02,9.97E+02,9.96E+02,9.96E+02,9.96E+02,9.96E+02,9.96E+02,9.96E+02,9.96E+02,9.95E+02,9.95E+02,9.95E+02,9.95E+02,9.95E+02,9.94E+02,9.94E+02,9.94E+02,9.94E+02,9.94E+02,9.93E+02,9.93E+02,9.93E+02,9.93E+02,9.92E+02,9.92E+02,9.92E+02,9.91E+02,9.91E+02,9.91E+02,9.91E+02,9.90E+02,9.90E+02,9.90E+02,9.90E+02,9.90E+02,9.90E+02,9.90E+02,9.90E+02,9.90E+02,9.91E+02,9.91E+02,9.91E+02,9.91E+02,9.91E+02,9.91E+02,9.91E+02,9.92E+02,9.92E+02,9.92E+02,9.92E+02,9.92E+02,9.93E+02,9.93E+02,9.93E+02,9.93E+02,9.94E+02,9.94E+02,9.94E+02,9.94E+02,9.94E+02,9.95E+02,9.95E+02,9.95E+02,9.95E+02,9.96E+02,9.96E+02,9.96E+02,9.96E+02,9.96E+02,9.97E+02,9.97E+02,9.97E+02,9.97E+02,9.97E+02,9.97E+02,9.97E+02,9.97E+02,9.97E+02,9.97E+02,9.97E+02,9.97E+02,9.96E+02,9.96E+02,9.96E+02,9.96E+02,9.96E+02,9.96E+02,9.95E+02,9.95E+02,9.95E+02,9.95E+02,9.94E+02,9.94E+02,9.94E+02,9.93E+02,9.93E+02,9.93E+02,9.93E+02,9.92E+02,9.92E+02,9.92E+02,9.91E+02,9.91E+02,9.91E+02,9.91E+02,9.90E+02,9.90E+02,9.90E+02,9.89E+02,9.89E+02,9.88E+02,9.88E+02,9.88E+02,9.87E+02,9.87E+02,9.86E+02,9.86E+02,9.86E+02,9.85E+02,9.85E+02,9.84E+02,9.84E+02,9.83E+02,9.83E+02,9.83E+02,9.82E+02,9.82E+02,9.83E+02,9.83E+02,9.83E+02,9.84E+02,9.85E+02,9.85E+02,9.86E+02,9.86E+02,9.86E+02,9.87E+02,9.87E+02,9.88E+02,9.88E+02,9.88E+02,9.89E+02,9.89E+02,9.90E+02,9.90E+02,9.90E+02,9.90E+02,9.91E+02,9.91E+02,9.91E+02,9.91E+02,9.91E+02,9.92E+02,9.92E+02,9.92E+02,9.92E+02,9.92E+02,9.93E+02,9.93E+02,9.93E+02,9.93E+02,9.93E+02,9.93E+02,9.93E+02,9.94E+02,9.94E+02,9.94E+02,9.94E+02,9.94E+02,9.94E+02,9.94E+02,9.94E+02,9.95E+02,9.95E+02,9.95E+02,9.95E+02
0.00E+00,0.00E+00,0.00E+00,0.00E+00,0.00E+00,0.00E+00,0.00E+00,0.00E+00,0.00E+00,0.00E+00,0.00E+00,0.00E+00,0.00E+00,9.75E+02,9.77E+02,9.78E+02,9.78E+02,9.78E+02,9.77E+02,9.77E+02,9.77E+02,9.77E+02,9.77E+02,9.77E+02,9.76E+02,9.76E+02,9.76E+02,9.76E+02,9.76E+02,9.76E+02,9.76E+02,9.76E+02,9.76E+02,9.76E+02,9.76E+02,9.75E+02,9.75E+02,9.75E+02,9.75E+02,9.75E+02,9.75E+02,9.75E+02,9.75E+02,9.75E+02,9.75E+02,9.75E+02,9.75E+02,9.75E+02,9.75E+02,9.75E+02,9.75E+02,9.75E+02,9.75E+02,9.75E+02,9.75E+02,9.75E+02,9.75E+02,9.75E+02,9.75E+02,9.75E+02,9.75E+02,9.75E+02,9.75E+02,9.75E+02,9.75E+02,9.75E+02,9.75E+02,9.75E+02,9.75E+02,9.75E+02,9.75E+02,9.75E+02,9.75E+02,9.75E+02,9.76E+02,9.76E+02,9.76E+02,9.76E+02,9.76E+02,9.76E+02,9.76E+02,9.76E+02,9.76E+02,9.76E+02,9.76E+02,9.77E+02,9.77E+02,9.77E+02,9.77E+02,9.77E+02,9.77E+02,9.77E+02,9.77E+02,9.78E+02,9.78E+02,9.78E+02,9.78E+02,9.78E+02,9.79E+02,9.79E+02,9.79E+02,9.80E+02,9.80E+02,9.81E+02,9.81E+02,9.82E+02,9.82E+02,9.83E+02,9.83E+02,9.84E+02,9.84E+02,9.85E+02,9.85E+02,9.86E+02,9.86E+02,9.86E+02,9.87E+02,9.87E+02,9.88E+02,9.88E+02,9.89E+02,9.89E+02,9.89E+02,9.90E+02,9.90E+02,9.90E+02,9.91E+02,9.91E+02,9.92E+02,9.92E+02,9.92E+02,9.93E+02,9.93E+02,9.93E+02,9.93E+02,9.94E+02,9.94E+02,9.94E+02,9.94E+02,9.95E+02,9.95E+02,9.95E+02,9.95E+02,9.95E+02,9.95E+02,9.96E+02,9.96E+02,9.96E+02,9.96E+02,9.96E+02,9.96E+02,9.96E+02,9.96E+02,9.96E+02,9.96E+02,9.96E+02,9.96E+02,9.96E+02,9.96E+02,9.96E+02,9.96E+02,9.96E+02,9.95E+02,9.95E+02,9.95E+02,9.95E+02,9.95E+02,9.94E+02,9.94E+02,9.94E+02,9.94E+02,9.94E+02,9.93E+02,9.93E+02,9.93E+02,9.93E+02,9.93E+02,9.92E+02,9.92E+02,9.92E+02,9.91E+02,9.91E+02,9.91E+02,9.91E+02,9.90E+02,9.90E+02,9.90E+02,9.90E+02,9.90E+02,9.90E+02,9.90E+02,9.90E+02,9.90E+02,9.90E+02,9.90E+02,9.91E+02,9.91E+02,9.91E+02,9.91E+02,9.91E+02,9.92E+02,9.92E+02,9.92E+02,9.92E+02,9.92E+02,9.93E+02,9.93E+02,9.93E+02,9.93E+02,9.93E+02,9.94E+02,9.94E+02,9.94E+02,9.94E+02,9.95E+02,9.95E+02,9.95E+02,9.95E+02,9.95E+02,9.96E+02,9.96E+02,9.96E+02,9.96E+02,9.97E+02,9.97E+02,9.97E+02,9.97E+02,9.97E+02,9.97E+02,9.97E+02,9.97E+02,9.97E+02,9.97E+02,9.97E+02,9.97E+02,9.97E+02,9.97E+02,9.96E+02,9.96E+02,9.96E+02,9.96E+02,9.96E+02,9.95E+02,9.95E+02,9.95E+02,9.95E+02,9.94E+02,9.94E+02,9.94E+02,9.93E+02,9.93E+02,9.93E+02,9.93E+02,9.92E+02,9.92E+02,9.92E+02,9.91E+02,9.91E+02,9.91E+02,9.91E+02,9.90E+02,9.90E+02,9.90E+02,9.89E+02,9.89E+02,9.88E+02,9.88E+02,9.88E+02,9.87E+02,9.87E+02,9.87E+02,9.86E+02,9.86E+02,9.85E+02,9.85E+02,9.84E+02,9.84E+02,9.83E+02,9.83E+02,9.82E+02,9.82E+02,9.82E+02,9.82E+02,9.83E+02,9.83E+02,9.84E+02,9.84E+02,9.85E+02,9.85E+02,9.86E+02,9.86E+02,9.87E+02,9.87E+02,9.88E+02,9.88E+02,9.89E+02,9.89E+02,9.89E+02,9.90E+02,9.90E+02,9.90E+02,9.90E+02,9.91E+02,9.91E+02,9.91E+02,9.91E+02,9.91E+02,9.92E+02,9.92E+02,9.92E+02,9.92E+02,9.92E+02,9.93E+02,9.93E+02,9.93E+02,9.93E+02,9.93E+02,9.93E+02,9.93E+02,9.94E+02,9.94E+02,9.94E+02,9.94E+02,9.94E+02,9.94E+02,9.94E+02,9.94E+02,9.94E+02,9.95E+02,9.95E+02,9.95E+02
0.00E+00,0.00E+00,0.00E+00,0.00E+00,0.00E+00,0.00E+00,0.00E+00,0.00E+00,0.00E+00,0.00E+00,0.00E+00,0.00E+00,0.00E+00,9.76E+02,9.77E+02,9.78E+02,9.78E+02,9.78E+02,9.77E+02,9.77E+02,9.77E+02,9.77E+02,9.77E+02,9.77E+02,9.77E+02,9.76E+02,9.76E+02,9.76E+02,9.76E+02,9.76E+02,9.76E+02,9.76E+02,9.76E+02,9.76E+02,9.76E+02,9.76E+02,9.76E+02,9.76E+02,9.75E+02,9.75E+02,9.75E+02,9.75E+02,9.75E+02,9.75E+02,9.75E+02,9.75E+02,9.75E+02,9.75E+02,9.75E+02,9.75E+02,9.75E+02,9.75E+02,9.75E+02,9.75E+02,9.75E+02,9.75E+02,9.75E+02,9.75E+02,9.75E+02,9.75E+02,9.75E+02,9.75E+02,9.75E+02,9.75E+02,9.75E+02,9.75E+02,9.75E+02,9.75E+02,9.75E+02,9.75E+02,9.75E+02,9.76E+02,9.76E+02,9.76E+02,9.76E+02,9.76E+02,9.76E+02,9.76E+02,9.76E+02,9.76E+02,9.76E+02,9.76E+02,9.76E+02,9.77E+02,9.77E+02,9.77E+02,9.77E+02,9.77E+02,9.77E+02,9.77E+02,9.77E+02,9.78E+02,9.78E+02,9.78E+02,9.78E+02,9.78E+02,9.78E+02,9.78E+02,9.79E+02,9.79E+02,9.79E+02,9.80E+02,9.80E+02,9.81E+02,9.81E+02,9.82E+02,9.82E+02,9.83E+02,9.83E+02,9.84E+02,9.84E+02,9.84E+02,9.85E+02,9.85E+02,9.86E+02,9.86E+02,9.87E+02,9.87E+02,9.87E+02,9.88E+02,9.88E+02,9.89E+02,9.89E+02,9.89E+02,9.90E+02,9.90E+02,9.90E+02,9.91E+02,9.91E+02,9.92E+02,9.92E+02,9.92E+02,9.92E+02,9.93E+02,9.93E+02,9.93E+02,9.94E+02,9.94E+02,9.94E+02,9.94E+02,9.94E+02,9.95E+02,9.95E+02,9.95E+02,9.95E+02,9.95E+02,9.95E+02,9.95E+02,9.95E+02,9.95E+02,9.95E+02,9.96E+02,9.96E+02,9.96E+02,9.96E+02,9.96E+02,9.96E+02,9.95E+02,9.95E+02,9.95E+02,9.95E+02,9.95E+02,9.95E+02,9.95E+02,9.94E+02,9.94E+02,9.94E+02,9.94E+02,9.94E+02,9.93E+02,9.93E+02,9.93E+02,9.93E+02,9.93E+02,9.92E+02,9.92E+02,9.92E+02,9.92E+02,9.92E+02,9.91E+02,9.91E+02,9.91E+02,9.91E+02,9.90E+02,9.90E+02,9.90E+02,9.90E+02,9.90E+02,9.90E+02,9.90E+02,9.90E+02,9.90E+02,9.90E+02,9.90E+02,9.90E+02,9.91E+02,9.91E+02,9.91E+02,9.91E+02,9.91E+02,9.92E+02,9.92E+02,9.92E+02,9.92E+02,9.93E+02,9.93E+02,9.93E+02,9.93E+02,9.93E+02,9.94E+02,9.94E+02,9.94E+02,9.94E+02,9.94E+02,9.95E+02,9.95E+02,9.95E+02,9.95E+02,9.96E+02,9.96E+02,9.96E+02,9.96E+02,9.97E+02,9.97E+02,9.97E+02,9.97E+02,9.97E+02,9.97E+02,9.97E+02,9.97E+02,9.97E+02,9.97E+02,9.97E+02,9.97E+02,9.97E+02,9.97E+02,9.97E+02,9.96E+02,9.96E+02,9.96E+02,9.96E+02,9.96E+02,9.95E+02,9.95E+02,9.95E+02,9.95E+02,9.94E+02,9.94E+02,9.94E+02,9.93E+02,9.93E+02,9.93E+02,9.93E+02,9.92E+02,9.92E+02,9.92E+02,9.91E+02,9.91E+02,9.91E+02,9.91E+02,9.90E+02,9.90E+02,9.90E+02,9.89E+02,9.89E+02,9.88E+02,9.88E+02,9.88E+02,9.87E+02,9.87E+02,9.87E+02,9.86E+02,9.86E+02,9.85E+02,9.85E+02,9.84E+02,9.84E+02,9.83E+02,9.83E+02,9.82E+02,9.82E+02,9.81E+02,9.82E+02,9.82E+02,9.83E+02,9.84E+02,9.84E+02,9.85E+02,9.86E+02,9.86E+02,9.87E+02,9.87E+02,9.87E+02,9.88E+02,9.88E+02,9.89E+02,9.89E+02,9.89E+02,9.90E+02,9.90E+02,9.90E+02,9.90E+02,9.91E+02,9.91E+02,9.91E+02,9.91E+02,9.92E+02,9.92E+02,9.92E+02,9.92E+02,9.92E+02,9.92E+02,9.93E+02,9.93E+02,9.93E+02,9.93E+02,9.93E+02,9.93E+02,9.93E+02,9.94E+02,9.94E+02,9.94E+02,9.94E+02,9.94E+02,9.94E+02,9.94E+02,9.94E+02,9.94E+02,9.95E+02,9.95E+02,9.95E+02
0.00E+00,0.00E+00,0.00E+00,0.00E+00,0.00E+00,0.00E+00,0.00E+00,0.00E+00,0.00E+00,0.00E+00,0.00E+00,0.00E+00,9.74E+02,9.76E+02,9.77E+02,9.78E+02,9.78E+02,9.78E+02,9.77E+02,9.77E+02,9.77E+02,9.77E+02,9.77E+02,9.77E+02,9.77E+02,9.77E+02,9.76E+02,9.76E+02,9.76E+02,9.76E+02,9.76E+02,9.76E+02,9.76E+02,9.76E+02,9.76E+02,9.76E+02,9.76E+02,9.76E+02,9.76E+02,9.76E+02,9.76E+02,9.76E+02,9.75E+02,9.75E+02,9.75E+02,9.75E+02,9.75E+02,9.75E+02,9.75E+02,9.75E+02,9.75E+02,9.75E+02,9.75E+02,9.75E+02,9.75E+02,9.75E+02,9.75E+02,9.75E+02,9.75E+02,9.75E+02,9.75E+02,9.75E+02,9.75E+02,9.75E+02,9.75E+02,9.75E+02,9.76E+02,9.76E+02,9.76E+02,9.76E+02,9.76E+02,9.76E+02,9.76E+02,9.76E+02,9.76E+02,9.76E+02,9.76E+02,9.76E+02,9.76E+02,9.76E+02,9.76E+02,9.77E+02,9.77E+02,9.77E+02,9.77E+02,9.77E+02,9.77E+02,9.77E+02,9.77E+02,9.77E+02,9.78E+02,9.78E+02,9.78E+02,9.78E+02,9.78E+02,9.78E+02,9.79E+02,9.79E+02,9.79E+02,9.79E+02,9.79E+02,9.80E+02,9.80E+02,9.81E+02,9.81E+02,9.82E+02,9.82E+02,9.83E+02,9.83E+02,9.83E+02,9.84E+02,9.84E+02,9.85E+02,9.85E+02,9.86E+02,9.86E+02,9.86E+02,9.87E+02,9.87E+02,9.88E+02,9.88E+02,9.88E+02,9.89E+02,9.89E+02,9.89E+02,9.90E+02,9.90E+02,9.91E+02,9.91E+02,9.91E+02,9.92E+02,9.92E+02,9.92E+02,9.92E+02,9.93E+02,9.93E+02,9.93E+02,9.93E+02,9.94E+02,9.94E+02,9.94E+02,9.94E+02,9.94E+02,9.94E+02,9.94E+02,9.95E+02,9.95E+02,9.95E+02,9.95E+02,9.95E+02,9.95E+02,9.95E+02,9.95E+02,9.95E+02,9.95E+02,9.95E+02,9.95E+02,9.95E+02,9.95E+02,9.95E+02,9.95E+02,9.94E+02,9.94E+02,9.94E+02,9.94E+02,9.94E+02,9.94E+02,9.93E+02,9.93E+02,9.93E+02,9.93E+02,9.93E+02,9.92E+02,9.92E+02,9.92E+02,9.92E+02,9.92E+02,9.91E+02,9.91E+02,9.91E+02,9.91E+02,9.91E+02,9.90E+02,9.90E+02,9.90E+02,9.90E+02,9.89E+02,9.89E+02,9.89E+02,9.89E+02,9.90E+02,9.90E+02,9.90E+02,9.90E+02,9.90E+02,9.91E+02,9.91E+02,9.91E+02,9.91E+02,9.92E+02,9.92E+02,9.92E+02,9.92E+02,9.92E+02,9.93E+02,9.93E+02,9.93E+02,9.93E+02,9.94E+02,9.94E+02,9.94E+02,9.94E+02,9.94E+02,9.95E+02,9.95E+02,9.95E+02,9.95E+02,9.96E+02,9.96E+02,9.96E+02,9.96E+02,9.97E+02,9.97E+02,9.97E+02,9.97E+02,9.97E+02,9.97E+02,9.98E+02,9.98E+02,9.98E+02,9.98E+02,9.97E+02,9.97E+02,9.97E+02,9.97E+02,9.97E+02,9.97E+02,9.97E+02,9.96E+02,9.96E+02,9.96E+02,9.96E+02,9.95E+02,9.95E+02,9.95E+02,9.95E+02,9.94E+02,9.94E+02,9.94E+02,9.93E+02,9.93E+02,9.93E+02,9.93E+02,9.92E+02,9.92E+02,9.92E+02,9.91E+02,9.91E+02,9.91E+02,9.91E+02,9.90E+02,9.90E+02,9.90E+02,9.89E+02,9.89E+02,9.89E+02,9.88E+02,9.88E+02,9.87E+02,9.87E+02,9.87E+02,9.86E+02,9.86E+02,9.86E+02,9.85E+02,9.85E+02,9.84E+02,9.84E+02,9.83E+02,9.83E+02,9.82E+02,9.82E+02,9.82E+02,9.83E+02,9.83E+02,9.84E+02,9.84E+02,9.85E+02,9.86E+02,9.86E+02,9.87E+02,9.87E+02,9.88E+02,9.88E+02,9.88E+02,9.89E+02,9.89E+02,9.90E+02,9.90E+02,9.90E+02,9.90E+02,9.91E+02,9.91E+02,9.91E+02,9.91E+02,9.91E+02,9.92E+02,9.92E+02,9.92E+02,9.92E+02,9.92E+02,9.92E+02,9.93E+02,9.93E+02,9.93E+02,9.93E+02,9.93E+02,9.93E+02,9.93E+02,9.94E+02,9.94E+02,9.94E+02,9.94E+02,9.94E+02,9.94E+02,9.94E+02,9.94E+02,9.94E+02,9.94E+02,9.95E+02,9.95E+02
0.00E+00,0.00E+00,0.00E+00,0.00E+00,0.00E+00,0.00E+00,0.00E+00,0.00E+00,0.00E+00,0.00E+00,0.00E+00,0.00E+00,9.75E+02,9.76E+02,9.77E+02,9.78E+02,9.78E+02,9.78E+02,9.78E+02,9.77E+02,9.77E+02,9.77E+02,9.77E+02,9.77E+02,9.77E+02,9.77E+02,9.77E+02,9.76E+02,9.76E+02,9.76E+02,9.76E+02,9.76E+02,9.76E+02,9.76E+02,9.76E+02,9.76E+02,9.76E+02,9.76E+02,9.76E+02,9.76E+02,9.76E+02,9.76E+02,9.76E+02,9.76E+02,9.76E+02,9.76E+02,9.76E+02,9.76E+02,9.76E+02,9.76E+02,9.76E+02,9.75E+02,9.75E+02,9.75E+02,9.75E+02,9.75E+02,9.75E+02,9.75E+02,9.75E+02,9.76E+02,9.76E+02,9.76E+02,9.76E+02,9.76E+02,9.76E+02,9.76E+02,9.76E+02,9.76E+02,9.76E+02,9.76E+02,9.76E+02,9.76E+02,9.76E+02,9.76E+02,9.76E+02,9.76E+02,9.76E+02,9.76E+02,9.77E+02,9.77E+02,9.77E+02,9.77E+02,9.77E+02,9.77E+02,9.77E+02,9.77E+02,9.77E+02,9.77E+02,9.78E+02,9.78E+02,9.78E+02,9.78E+02,9.78E+02,9.78E+02,9.78E+02,9.79E+02,9.79E+02,9.79E+02,9.79E+02,9.79E+02,9.79E+02,9.80E+02,9.80E+02,9.81E+02,9.81E+02,9.81E+02,9.82E+02,9.82E+02,9.83E+02,9.83E+02,9.84E+02,9.84E+02,9.85E+02,9.85E+02,9.85E+02,9.86E+02,9.86E+02,9.86E+02,9.87E+02,9.87E+02,9.88E+02,9.88E+02,9.88E+02,9.89E+02,9.89E+02,9.89E+02,9.90E+02,9.90E+02,9.91E+02,9.91E+02,9.91E+02,9.91E+02,9.92E+02,9.92E+02,9.92E+02,9.92E+02,9.93E+02,9.93E+02,9.93E+02,9.93E+02,9.93E+02,9.94E+02,9.94E+02,9.94E+02,9.94E+02,9.94E+02,9.94E+02,9.94E+02,9.94E+02,9.94E+02,9.94E+02,9.95E+02,9.95E+02,9.95E+02,9.95E+02,9.95E+02,9.94E+02,9.94E+02,9.94E+02,9.94E+02,9.94E+02,9.94E+02,9.94E+02,9.94E+02,9.93E+02,9.93E+02,9.93E+02,9.93E+02,9.93E+02,9.92E+02,9.92E+02,9.92E+02,9.92E+02,9.92E+02,9.91E+02,9.91E+02,9.91E+02,9.91E+02,9.91E+02,9.90E+02,9.90E+02,9.90E+02,9.90E+02,9.90E+02,9.89E+02,9.89E+02,9.89E+02,9.89E+02,9.89E+02,9.89E+02,9.90E+02,9.90E+02,9.90E+02,9.90E+02,9.90E+02,9.91E+02,9.91E+02,9.91E+02,9.91E+02,9.92E+02,9.92E+02,9.92E+02,9.92E+02,9.93E+02,9.93E+02,9.93E+02,9.93E+02,9.93E+02,9.94E+02,9.94E+02,9.94E+02,9.94E+02,9.95E+02,9.95E+02,9.95E+02,9.95E+02,9.96E+02,9.96E+02,9.96E+02,9.96E+02,9.96E+02,9.97E+02,9.97E+02,9.97E+02,9.97E+02,9.98E+02,9.98E+02,9.98E+02,9.98E+02,9.98E+02,9.98E+02,9.98E+02,9.98E+02,9.97E+02,9.97E+02,9.97E+02,9.97E+02,9.97E+02,9.96E+02,9.96E+02,9.96E+02,9.96E+02,9.95E+02,9.95E+02,9.95E+02,9.95E+02,9.94E+02,9.94E+02,9.94E+02,9.93E+02,9.93E+02,9.93E+02,9.93E+02,9.92E+02,9.92E+02,9.92E+02,9.91E+02,9.91E+02,9.91E+02,9.91E+02,9.90E+02,9.90E+02,9.90E+02,9.89E+02,9.89E+02,9.89E+02,9.88E+02,9.88E+02,9.88E+02,9.87E+02,9.87E+02,9.87E+02,9.86E+02,9.86E+02,9.85E+02,9.85E+02,9.85E+02,9.84E+02,9.84E+02,9.83E+02,9.83E+02,9.83E+02,9.83E+02,9.83E+02,9.84E+02,9.84E+02,9.85E+02,9.85E+02,9.86E+02,9.87E+02,9.87E+02,9.87E+02,9.88E+02,9.88E+02,9.89E+02,9.89E+02,9.90E+02,9.90E+02,9.90E+02,9.90E+02,9.91E+02,9.91E+02,9.91E+02,9.91E+02,9.91E+02,9.92E+02,9.92E+02,9.92E+02,9.92E+02,9.92E+02,9.92E+02,9.93E+02,9.93E+02,9.93E+02,9.93E+02,9.93E+02,9.93E+02,9.93E+02,9.93E+02,9.94E+02,9.94E+02,9.94E+02,9.94E+02,9.94E+02,9.94E+02,9.94E+02,9.94E+02,9.94E+02,9.94E+02,9.94E+02,9.95E+02
0.00E+00,0.00E+00,0.00E+00,0.00E+00,0.00E+00,0.00E+00,0.00E+00,0.00E+00,0.00E+00,0.00E+00,0.00E+00,0.00E+00,9.75E+02,9.76E+02,9.77E+02,9.78E+02,9.78E+02,9.78E+02,9.78E+02,9.77E+02,9.77E+02,9.77E+02,9.77E+02,9.77E+02,9.77E+02,9.77E+02,9.77E+02,9.77E+02,9.77E+02,9.76E+02,9.76E+02,9.76E+02,9.76E+02,9.76E+02,9.76E+02,9.76E+02,9.76E+02,9.76E+02,9.76E+02,9.76E+02,9.76E+02,9.76E+02,9.76E+02,9.76E+02,9.76E+02,9.76E+02,9.76E+02,9.76E+02,9.76E+02,9.76E+02,9.76E+02,9.76E+02,9.76E+02,9.76E+02,9.76E+02,9.76E+02,9.76E+02,9.76E+02,9.76E+02,9.76E+02,9.76E+02,9.76E+02,9.76E+02,9.76E+02,9.76E+02,9.76E+02,9.76E+02,9.76E+02,9.76E+02,9.76E+02,9.76E+02,9.76E+02,9.76E+02,9.76E+02,9.76E+02,9.77E+02,9.77E+02,9.77E+02,9.77E+02,9.77E+02,9.77E+02,9.77E+02,9.77E+02,9.77E+02,9.77E+02,9.77E+02,9.78E+02,9.78E+02,9.78E+02,9.78E+02,9.78E+02,9.78E+02,9.78E+02,9.78E+02,9.79E+02,9.79E+02,9.79E+02,9.79E+02,9.79E+02,9.79E+02,9.79E+02,9.80E+02,9.80E+02,9.80E+02,9.81E+02,9.81E+02,9.82E+02,9.82E+02,9.83E+02,9.83E+02,9.83E+02,9.84E+02,9.84E+02,9.85E+02,9.85E+02,9.85E+02,9.86E+02,9.86E+02,9.87E+02,9.87E+02,9.87E+02,9.88E+02,9.88E+02,9.88E+02,9.89E+02,9.89E+02,9.89E+02,9.90E+02,9.90E+02,9.90E+02,9.91E+02,9.91E+02,9.91E+02,9.92E+02,9.92E+02,9.92E+02,9.92E+02,9.92E+02,9.93E+02,9.93E+02,9.93E+02,9.93E+02,9.93E+02,9.93E+02,9.94E+02,9.94E+02,9.94E+02,9.94E+02,9.94E+02,9.94E+02,9.94E+02,9.94E+02,9.94E+02,9.94E+02,9.94E+02,9.94E+02,9.94E+02,9.94E+02,9.94E+02,9.94E+02,9.94E+02,9.93E+02,9.93E+02,9.93E+02,9.93E+02,9.93E+02,9.93E+02,9.92E+02,9.92E+02,9.92E+02,9.92E+02,9.92E+02,9.91E+02,9.91E+02,9.91E+02,9.91E+02,9.91E+02,9.90E+02,9.90E+02,9.90E+02,9.90E+02,9.90E+02,9.89E+02,9.89E+02,9.89E+02,9.89E+02,9.89E+02,9.89E+02,9.89E+02,9.89E+02,9.90E+02,9.90E+02,9.90E+02,9.90E+02,9.91E+02,9.91E+02,9.91E+02,9.91E+02,9.91E+02,9.92E+02,9.92E+02,9.92E+02,9.92E+02,9.93E+02,9.93E+02,9.93E+02,9.93E+02,9.93E+02,9.94E+02,9.94E+02,9.94E+02,9.94E+02,9.95E+02,9.95E+02,9.95E+02,9.95E+02,9.96E+02,9.96E+02,9.96E+02,9.96E+02,9.97E+02,9.97E+02,9.97E+02,9.97E+02,9.98E+02,9.98E+02,9.98E+02,9.98E+02,9.98E+02,9.98E+02,9.98E+02,9.98E+02,9.98E+02,9.98E+02,9.97E+02,9.97E+02,9.97E+02,9.97E+02,9.96E+02,9.96E+02,9.96E+02,9.96E+02,9.95E+02,9.95E+02,9.95E+02,9.95E+02,9.94E+02,9.94E+02,9.94E+02,9.93E+02,9.93E+02,9.93E+02,9.93E+02,9.92E+02,9.92E+02,9.92E+02,9.91E+02,9.91E+02,9.91E+02,9.91E+02,9.90E+02,9.90E+02,9.90E+02,9.89E+02,9.89E+02,9.89E+02,9.88E+02,9.88E+02,9.88E+02,9.87E+02,9.87E+02,9.87E+02,9.86E+02,9.86E+02,9.86E+02,9.85E+02,9.85E+02,9.85E+02,9.85E+02,9.84E+02,9.84E+02,9.84E+02,9.84E+02,9.84E+02,9.84E+02,9.85E+02,9.85E+02,9.86E+02,9.86E+02,9.87E+02,9.87E+02,9.88E+02,9.88E+02,9.89E+02,9.89E+02,9.90E+02,9.90E+02,9.90E+02,9.90E+02,9.91E+02,9.91E+02,9.91E+02,9.91E+02,9.91E+02,9.92E+02,9.92E+02,9.92E+02,9.92E+02,9.92E+02,9.92E+02,9.92E+02,9.93E+02,9.93E+02,9.93E+02,9.93E+02,9.93E+02,9.93E+02,9.93E+02,9.93E+02,9.93E+02,9.94E+02,9.94E+02,9.94E+02,9.94E+02,9.94E+02,9.94E+02,9.94E+02,9.94E+02,9.94E+02,9.94E+02,9.94E+02
0.00E+00,0.00E+00,0.00E+00,0.00E+00,0.00E+00,0.00E+00,0.00E+00,0.00E+00,0.00E+00,0.00E+00,0.00E+00,0.00E+00,9.75E+02,9.76E+02,9.77E+02,9.78E+02,9.78E+02,9.78E+02,9.78E+02,9.77E+02,9.77E+02,9.77E+02,9.77E+02,9.77E+02,9.77E+02,9.77E+02,9.77E+02,9.77E+02,9.77E+02,9.77E+02,9.77E+02,9.76E+02,9.76E+02,9.76E+02,9.76E+02,9.76E+02,9.76E+02,9.76E+02,9.76E+02,9.76E+02,9.76E+02,9.76E+02,9.76E+02,9.76E+02,9.76E+02,9.76E+02,9.76E+02,9.76E+02,9.76E+02,9.76E+02,9.76E+02,9.76E+02,9.76E+02,9.76E+02,9.76E+02,9.76E+02,9.76E+02,9.76E+02,9.76E+02,9.76E+02,9.76E+02,9.76E+02,9.76E+02,9.76E+02,9.76E+02,9.76E+02,9.76E+02,9.76E+02,9.76E+02,9.76E+02,9.76E+02,9.77E+02,9.77E+02,9.77E+02,9.77E+02,9.77E+02,9.77E+02,9.77E+02,9.77E+02,9.77E+02,9.77E+02,9.77E+02,9.77E+02,9.77E+02,9.78E+02,9.78E+02,9.78E+02,9.78E+02,9.78E+02,9.78E+02,9.78E+02,9.78E+02,9.78E+02,9.79E+02,9.79E+02,9.79E+02,9.79E+02,9.79E+02,9.79E+02,9.79E+02,9.80E+02,9.80E+02,9.80E+02,9.80E+02,9.81E+02,9.81E+02,9.82E+02,9.82E+02,9.83E+02,9.83E+02,9.83E+02,9.84E+02,9.84E+02,9.85E+02,9.85E+02,9.85E+02,9.86E+02,9.86E+02,9.86E+02,9.87E+02,9.87E+02,9.87E+02,9.88E+02,9.88E+02,9.88E+02,9.89E+02,9.89E+02,9.90E+02,9.90E+02,9.90E+02,9.90E+02,9.91E+02,9.91E+02,9.91E+02,9.91E+02,9.92E+02,9.92E+02,9.92E+02,9.92E+02,9.92E+02,9.93E+02,9.93E+02,9.93E+02,9.93E+02,9.93E+02,9.93E+02,9.93E+02,9.93E+02,9.93E+02,9.93E+02,9.93E+02,9.94E+02,9.94E+02,9.94E+02,9.94E+02,9.94E+02,9.93E+02,9.93E+02,9.93E+02,9.93E+02,9.93E+02,9.93E+02,9.93E+02,9.93E+02,9.92E+02,9.92E+02,9.92E+02,9.92E+02,9.92E+02,9.91E+02,9.91E+02,9.91E+02,9.91E+02,9.91E+02,9.90E+02,9.90E+02,9.90E+02,9.90E+02,9.90E+02,9.89E+02,9.89E+02,9.89E+02,9.89E+02,9.89E+02,9.89E+02,9.89E+02,9.89E+02,9.89E+02,9.89E+02,9.89E+02,9.90E+02,9.90E+02,9.90E+02,9.90E+02,9.91E+02,9.91E+02,9.91E+02,9.91E+02,9.91E+02,9.92E+02,9.92E+02,9.92E+02,9.92E+02,9.93E+02,9.93E+02,9.93E+02,9.93E+02,9.94E+02,9.94E+02,9.94E+02,9.94E+02,9.94E+02,9.95E+02,9.95E+02,9.95E+02,9.95E+02,9.96E+02,9.96E+02,9.96E+02,9.96E+02,9.97E+02,9.97E+02,9.97E+02,9.97E+02,9.98E+02,9.98E+02,9.98E+02,9.98E+02,9.98E+02,9.98E+02,9.98E+02,9.98E+02,9.98E+02,9.98E+02,9.97E+02,9.97E+02,9.97E+02,9.97E+02,9.96E+02,9.96E+02,9.96E+02,9.96E+02,9.95E+02,9.95E+02,9.95E+02,9.95E+02,9.94E+02,9.94E+02,9.94E+02,9.94E+02,9.93E+02,9.93E+02,9.93E+02,9.92E+02,9.92E+02,9.92E+02,9.92E+02,9.91E+02,9.91E+02,9.91E+02,9.90E+02,9.90E+02,9.90E+02,9.90E+02,9.89E+02,9.89E+02,9.89E+02,9.88E+02,9.88E+02,9.88E+02,9.87E+02,9.87E+02,9.87E+02,9.87E+02,9.86E+02,9.86E+02,9.86E+02,9.86E+02,9.85E+02,9.85E+02,9.85E+02,9.85E+02,9.85E+02,9.85E+02,9.85E+02,9.85E+02,9.86E+02,9.87E+02,9.87E+02,9.88E+02,9.88E+02,9.88E+02,9.89E+02,9.89E+02,9.90E+02,9.90E+02,9.90E+02,9.90E+02,9.91E+02,9.91E+02,9.91E+02,9.91E+02,9.91E+02,9.92E+02,9.92E+02,9.92E+02,9.92E+02,9.92E+02,9.92E+02,9.92E+02,9.92E+02,9.93E+02,9.93E+02,9.93E+02,9.93E+02,9.93E+02,9.93E+02,9.93E+02,9.93E+02,9.93E+02,9.94E+02,9.94E+02,9.94E+02,9.94E+02,9.94E+02,9.94E+02,9.94E+02,9.94E+02,9.94E+02,9.94E+02,9.94E+02
0.00E+00,0.00E+00,0.00E+00,0.00E+00,0.00E+00,0.00E+00,0.00E+00,0.00E+00,0.00E+00,0.00E+00,0.00E+00,0.00E+00,9.75E+02,9.76E+02,9.77E+02,9.78E+02,9.78E+02,9.78E+02,9.78E+02,9.78E+02,9.77E+02,9.77E+02,9.77E+02,9.77E+02,9.77E+02,9.77E+02,9.77E+02,9.77E+02,9.77E+02,9.77E+02,9.77E+02,9.77E+02,9.77E+02,9.77E+02,9.77E+02,9.76E+02,9.76E+02,9.76E+02,9.76E+02,9.76E+02,9.76E+02,9.76E+02,9.76E+02,9.76E+02,9.76E+02,9.76E+02,9.76E+02,9.76E+02,9.76E+02,9.76E+02,9.76E+02,9.76E+02,9.76E+02,9.76E+02,9.76E+02,9.76E+02,9.76E+02,9.76E+02,9.76E+02,9.76E+02,9.76E+02,9.76E+02,9.76E+02,9.76E+02,9.76E+02,9.76E+02,9.76E+02,9.77E+02,9.77E+02,9.77E+02,9.77E+02,9.77E+02,9.77E+02,9.77E+02,9.77E+02,9.77E+02,9.77E+02,9.77E+02,9.77E+02,9.77E+02,9.77E+02,9.77E+02,9.78E+02,9.78E+02,9.78E+02,9.78E+02,9.78E+02,9.78E+02,9.78E+02,9.78E+02,9.78E+02,9.79E+02,9.79E+02,9.79E+02,9.79E+02,9.79E+02,9.79E+02,9.79E+02,9.79E+02,9.80E+02,9.80E+02,9.80E+02,9.80E+02,9.80E+02,9.81E+02,9.81E+02,9.82E+02,9.82E+02,9.82E+02,9.83E+02,9.83E+02,9.84E+02,9.84E+02,9.84E+02,9.85E+02,9.85E+02,9.85E+02,9.86E+02,9.86E+02,9.87E+02,9.87E+02,9.87E+02,9.88E+02,9.88E+02,9.88E+02,9.89E+02,9.89E+02,9.89E+02,9.89E+02,9.90E+02,9.90E+02,9.90E+02,9.91E+02,9.91E+02,9.91E+02,9.91E+02,9.91E+02,9.92E+02,9.92E+02,9.92E+02,9.92E+02,9.92E+02,9.92E+02,9.93E+02,9.93E+02,9.93E+02,9.93E+02,9.93E+02,9.93E+02,9.93E+02,9.93E+02,9.93E+02,9.93E+02,9.93E+02,9.93E+02,9.93E+02,9.93E+02,9.93E+02,9.93E+02,9.93E+02,9.93E+02,9.92E+02,9.92E+02,9.92E+02,9.92E+02,9.92E+02,9.92E+02,9.91E+02,9.91E+02,9.91E+02,9.91E+02,9.91E+02,9.90E+02,9.90E+02,9.90E+02,9.90E+02,9.90E+02,9.89E+02,9.89E+02,9.89E+02,9.89E+02,9.89E+02,9.89E+02,9.89E+02,9.89E+02,9.89E+02,9.89E+02,9.89E+02,9.89E+02,9.89E+02,9.90E+02,9.90E+02,9.90E+02,9.90E+02,9.91E+02,9.91E+02,9.91E+02,9.91E+02,9.92E+02,9.92E+02,9.92E+02,9.92E+02,9.92E+02,9.93E+02,9.93E+02,9.93E+02,9.93E+02,9.94E+02,9.94E+02,9.94E+02,9.94E+02,9.95E+02,9.95E+02,9.95E+02,9.95E+02,9.96E+02,9.96E+02,9.96E+02,9.96E+02,9.97E+02,9.97E+02,9.97E+02,9.97E+02,9.98E+02,9.98E+02,9.98E+02,9.98E+02,9.99E+02,9.99E+02,9.99E+02,9.98E+02,9.98E+02,9.98E+02,9.98E+02,9.97E+02,9.97E+02,9.97E+02,9.97E+02,9.96E+02,9.96E+02,9.96E+02,9.96E+02,9.95E+02,9.95E+02,9.95E+02,9.95E+02,9.94E+02,9.94E+02,9.94E+02,9.94E+02,9.93E+02,9.93E+02,9.93E+02,9.92E+02,9.92E+02,9.92E+02,9.92E+02,9.91E+02,9.91E+02,9.91E+02,9.91E+02,9.90E+02,9.90E+02,9.90E+02,9.89E+02,9.89E+02,9.89E+02,9.89E+02,9.88E+02,9.88E+02,9.88E+02,9.87E+02,9.87E+02,9.87E+02,9.87E+02,9.87E+02,9.86E+02,9.86E+02,9.86E+02,9.86E+02,9.86E+02,9.86E+02,9.86E+02,9.86E+02,9.86E+02,9.86E+02,9.87E+02,9.87E+02,9.88E+02,9.88E+02,9.88E+02,9.89E+02,9.89E+02,9.90E+02,9.90E+02,9.90E+02,9.91E+02,9.91E+02,9.91E+02,9.91E+02,9.91E+02,9.91E+02,9.92E+02,9.92E+02,9.92E+02,9.92E+02,9.92E+02,9.92E+02,9.92E+02,9.92E+02,9.93E+02,9.93E+02,9.93E+02,9.93E+02,9.93E+02,9.93E+02,9.93E+02,9.93E+02,9.93E+02,9.93E+02,9.94E+02,9.94E+02,9.94E+02,9.94E+02,9.94E+02,9.94E+02,9.94E+02,9.94E+02,9.94E+02,9.94E+02,9.94E+02
0.00E+00,0.00E+00,0.00E+00,0.00E+00,0.00E+00,0.00E+00,0.00E+00,0.00E+00,0.00E+00,0.00E+00,0.00E+00,0.00E+00,9.75E+02,9.76E+02,9.78E+02,9.78E+02,9.78E+02,9.78E+02,9.78E+02,9.78E+02,9.78E+02,9.77E+02,9.77E+02,9.77E+02,9.77E+02,9.77E+02,9.77E+02,9.77E+02,9.77E+02,9.77E+02,9.77E+02,9.77E+02,9.77E+02,9.77E+02,9.77E+02,9.77E+02,9.77E+02,9.77E+02,9.77E+02,9.77E+02,9.76E+02,9.76E+02,9.76E+02,9.76E+02,9.76E+02,9.76E+02,9.76E+02,9.76E+02,9.76E+02,9.76E+02,9.76E+02,9.76E+02,9.76E+02,9.76E+02,9.76E+02,9.76E+02,9.76E+02,9.76E+02,9.76E+02,9.76E+02,9.76E+02,9.77E+02,9.77E+02,9.77E+02,9.77E+02,9.77E+02,9.77E+02,9.77E+02,9.77E+02,9.77E+02,9.77E+02,9.77E+02,9.77E+02,9.77E+02,9.77E+02,9.77E+02,9.77E+02,9.77E+02,9.77E+02,9.78E+02,9.78E+02,9.78E+02,9.78E+02,9.78E+02,9.78E+02,9.78E+02,9.78E+02,9.78E+02,9.78E+02,9.78E+02,9.79E+02,9.79E+02,9.79E+02,9.79E+02,9.79E+02,9.79E+02,9.79E+02,9.79E+02,9.80E+02,9.80E+02,9.80E+02,9.80E+02,9.80E+02,9.80E+02,9.81E+02,9.81E+02,9.82E+02,9.82E+02,9.82E+02,9.83E+02,9.83E+02,9.83E+02,9.84E+02,9.84E+02,9.85E+02,9.85E+02,9.85E+02,9.86E+02,9.86E+02,9.86E+02,9.87E+02,9.87E+02,9.87E+02,9.88E+02,9.88E+02,9.88E+02,9.89E+02,9.89E+02,9.89E+02,9.89E+02,9.90E+02,9.90E+02,9.90E+02,9.90E+02,9.91E+02,9.91E+02,9.91E+02,9.91E+02,9.91E+02,9.92E+02,9.92E+02,9.92E+02,9.92E+02,9.92E+02,9.92E+02,9.92E+02,9.92E+02,9.92E+02,9.92E+02,9.92E+02,9.93E+02,9.93E+02,9.93E+02,9.93E+02,9.93E+02,9.93E+02,9.92E+02,9.92E+02,9.92E+02,9.92E+02,9.92E+02,9.92E+02,9.92E+02,9.92E+02,9.91E+02,9.91E+02,9.91E+02,9.91E+02,9.91E+02,9.90E+02,9.90E+02,9.90E+02,9.90E+02,9.90E+02,9.89E+02,9.89E+02,9.89E+02,9.89E+02,9.89E+02,9.89E+02,9.89E+02,9.89E+02,9.89E+02,9.89E+02,9.89E+02,9.89E+02,9.89E+02,9.89E+02,9.89E+02,9.89E+02,9.90E+02,9.90E+02,9.90E+02,9.90E+02,9.91E+02,9.91E+02,9.91E+02,9.91E+02,9.91E+02,9.92E+02,9.92E+02,9.92E+02,9.92E+02,9.93E+02,9.93E+02,9.93E+02,9.93E+02,9.94E+02,9.94E+02,9.94E+02,9.94E+02,9.95E+02,9.95E+02,9.95E+02,9.95E+02,9.95E+02,9.96E+02,9.96E+02,9.96E+02,9.97E+02,9.97E+02,9.97E+02,9.97E+02,9.98E+02,9.98E+02,9.98E+02,9.98E+02,9.99E+02,9.99E+02,9.99E+02,9.99E+02,9.98E+02,9.98E+02,9.98E+02,9.97E+02,9.97E+02,9.97E+02,9.97E+02,9.96E+02,9.96E+02,9.96E+02,9.96E+02,9.95E+02,9.95E+02,9.95E+02,9.95E+02,9.94E+02,9.94E+02,9.94E+02,9.94E+02,9.93E+02,9.93E+02,9.93E+02,9.93E+02,9.92E+02,9.92E+02,9.92E+02,9.91E+02,9.91E+02,9.91E+02,9.91E+02,9.90E+02,9.90E+02,9.90E+02,9.90E+02,9.89E+02,9.89E+02,9.89E+02,9.89E+02,9.88E+02,9.88E+02,9.88E+02,9.88E+02,9.88E+02,9.87E+02,9.87E+02,9.87E+02,9.87E+02,9.87E+02,9.87E+02,9.87E+02,9.87E+02,9.87E+02,9.87E+02,9.87E+02,9.87E+02,9.87E+02,9.88E+02,9.88E+02,9.89E+02,9.89E+02,9.89E+02,9.90E+02,9.90E+02,9.90E+02,9.91E+02,9.91E+02,9.91E+02,9.91E+02,9.91E+02,9.91E+02,9.92E+02,9.92E+02,9.92E+02,9.92E+02,9.92E+02,9.92E+02,9.92E+02,9.92E+02,9.92E+02,9.93E+02,9.93E+02,9.93E+02,9.93E+02,9.93E+02,9.93E+02,9.93E+02,9.93E+02,9.93E+02,9.93E+02,9.94E+02,9.94E+02,9.94E+02,9.94E+02,9.94E+02,9.94E+02,9.94E+02,9.94E+02,9.94E+02,9.94E+02,9.94E+02
0.00E+00,0.00E+00,0.00E+00,0.00E+00,0.00E+00,0.00E+00,0.00E+00,0.00E+00,0.00E+00,0.00E+00,0.00E+00,0.00E+00,9.75E+02,9.77E+02,9.78E+02,9.78E+02,9.78E+02,9.78E+02,9.78E+02,9.78E+02,9.78E+02,9.78E+02,9.77E+02,9.77E+02,9.77E+02,9.77E+02,9.77E+02,9.77E+02,9.77E+02,9.77E+02,9.77E+02,9.77E+02,9.77E+02,9.77E+02,9.77E+02,9.77E+02,9.77E+02,9.77E+02,9.77E+02,9.77E+02,9.77E+02,9.77E+02,9.77E+02,9.77E+02,9.77E+02,9.77E+02,9.77E+02,9.77E+02,9.77E+02,9.77E+02,9.77E+02,9.77E+02,9.77E+02,9.77E+02,9.77E+02,9.77E+02,9.77E+02,9.77E+02,9.77E+02,9.77E+02,9.77E+02,9.77E+02,9.77E+02,9.77E+02,9.77E+02,9.77E+02,9.77E+02,9.77E+02,9.77E+02,9.77E+02,9.77E+02,9.77E+02,9.77E+02,9.77E+02,9.77E+02,9.77E+02,9.78E+02,9.78E+02,9.78E+02,9.78E+02,9.78E+02,9.78E+02,9.78E+02,9.78E+02,9.78E+02,9.78E+02,9.78E+02,9.78E+02,9.79E+02,9.79E+02,9.79E+02,9.79E+02,9.79E+02,9.79E+02,9.79E+02,9.79E+02,9.79E+02,9.80E+02,9.80E+02,9.80E+02,9.80E+02,9.80E+02,9.80E+02,9.80E+02,9.81E+02,9.81E+02,9.81E+02,9.82E+02,9.82E+02,9.83E+02,9.83E+02,9.83E+02,9.84E+02,9.84E+02,9.84E+02,9.85E+02,9.85E+02,9.85E+02,9.86E+02,9.86E+02,9.86E+02,9.87E+02,9.87E+02,9.87E+02,9.88E+02,9.88E+02,9.88E+02,9.89E+02,9.89E+02,9.89E+02,9.89E+02,9.90E+02,9.90E+02,9.90E+02,9.90E+02,9.91E+02,9.91E+02,9.91E+02,9.91E+02,9.91E+02,9.91E+02,9.91E+02,9.92E+02,9.92E+02,9.92E+02,9.92E+02,9.92E+02,9.92E+02,9.92E+02,9.92E+02,9.92E+02,9.92E+02,9.92E+02,9.92E+02,9.92E+02,9.92E+02,9.92E+02,9.92E+02,9.92E+02,9.92E+02,9.92E+02,9.91E+02,9.91E+02,9.91E+02,9.91E+02,9.91E+02,9.91E+02,9.90E+02,9.90E+02,9.90E+02,9.90E+02,9.90E+02,9.89E+02,9.89E+02,9.89E+02,9.89E+02,9.89E+02,9.89E+02,9.89E+02,9.89E+02,9.89E+02,9.89E+02,9.89E+02,9.89E+02,9.89E+02,9.89E+02,9.89E+02,9.89E+02,9.89E+02,9.89E+02,9.90E+02,9.90E+02,9.90E+02,9.90E+02,9.91E+02,9.91E+02,9.91E+02,9.91E+02,9.91E+02,9.92E+02,9.92E+02,9.92E+02,9.92E+02,9.93E+02,9.93E+02,9.93E+02,9.93E+02,9.94E+02,9.94E+02,9.94E+02,9.94E+02,9.94E+02,9.95E+02,9.95E+02,9.95E+02,9.95E+02,9.96E+02,9.96E+02,9.96E+02,9.96E+02,9.97E+02,9.97E+02,9.97E+02,9.97E+02,9.98E+02,9.98E+02,9.98E+02,9.98E+02,9.99E+02,9.99E+02,9.99E+02,9.98E+02,9.98E+02,9.98E+02,9.98E+02,9.97E+02,9.97E+02,9.97E+02,9.97E+02,9.96E+02,9.96E+02,9.96E+02,9.95E+02,9.95E+02,9.95E+02,9.95E+02,9.94E+02,9.94E+02,9.94E+02,9.94E+02,9.93E+02,9.93E+02,9.93E+02,9.93E+02,9.92E+02,9.92E+02,9.92E+02,9.92E+02,9.91E+02,9.91E+02,9.91E+02,9.91E+02,9.90E+02,9.90E+02,9.90E+02,9.90E+02,9.89E+02,9.89E+02,9.89E+02,9.89E+02,9.89E+02,9.88E+02,9.88E+02,9.88E+02,9.88E+02,9.88E+02,9.88E+02,9.88E+02,9.88E+02,9.88E+02,9.88E+02,9.88E+02,9.88E+02,9.88E+02,9.88E+02,9.88E+02,9.88E+02,9.88E+02,9.89E+02,9.89E+02,9.90E+02,9.90E+02,9.90E+02,9.91E+02,9.91E+02,9.91E+02,9.91E+02,9.91E+02,9.91E+02,9.92E+02,9.92E+02,9.92E+02,9.92E+02,9.92E+02,9.92E+02,9.92E+02,9.92E+02,9.92E+02,9.92E+02,9.93E+02,9.93E+02,9.93E+02,9.93E+02,9.93E+02,9.93E+02,9.93E+02,9.93E+02,9.93E+02,9.93E+02,9.93E+02,9.93E+02,9.94E+02,9.94E+02,9.94E+02,9.94E+02,9.94E+02,9.94E+02,9.94E+02,9.94E+02,9.94E+02,9.94E+02
0.00E+00,0.00E+00,0.00E+00,0.00E+00,0.00E+00,0.00E+00,0.00E+00,0.00E+00,0.00E+00,0.00E+00,0.00E+00,9.74E+02,9.76E+02,9.77E+02,9.78E+02,9.78E+02,9.78E+02,9.78E+02,9.78E+02,9.78E+02,9.78E+02,9.78E+02,9.78E+02,9.77E+02,9.77E+02,9.77E+02,9.77E+02,9.77E+02,9.77E+02,9.77E+02,9.77E+02,9.77E+02,9.77E+02,9.77E+02,9.77E+02,9.77E+02,9.77E+02,9.77E+02,9.77E+02,9.77E+02,9.77E+02,9.77E+02,9.77E+02,9.77E+02,9.77E+02,9.77E+02,9.77E+02,9.77E+02,9.77E+02,9.77E+02,9.77E+02,9.77E+02,9.77E+02,9.77E+02,9.77E+02,9.77E+02,9.77E+02,9.77E+02,9.77E+02,9.77E+02,9.77E+02,9.77E+02,9.77E+02,9.77E+02,9.77E+02,9.77E+02,9.77E+02,9.77E+02,9.77E+02,9.77E+02,9.77E+02,9.77E+02,9.77E+02,9.78E+02,9.78E+02,9.78E+02,9.78E+02,9.78E+02,9.78E+02,9.78E+02,9.78E+02,9.78E+02,9.78E+02,9.78E+02,9.78E+02,9.78E+02,9.79E+02,9.79E+02,9.79E+02,9.79E+02,9.79E+02,9.79E+02,9.79E+02,9.79E+02,9.79E+02,9.80E+02,9.80E+02,9.80E+02,9.80E+02,9.80E+02,9.80E+02,9.80E+02,9.80E+02,9.80E+02,9.81E+02,9.81E+02,9.81E+02,9.82E+02,9.82E+02,9.83E+02,9.83E+02,9.83E+02,9.84E+02,9.84E+02,9.84E+02,9.85E+02,9.85E+02,9.85E+02,9.86E+02,9.86E+02,9.86E+02,9.86E+02,9.87E+02,9.87E+02,9.87E+02,9.88E+02,9.88E+02,9.88E+02,9.89E+02,9.89E+02,9.89E+02,9.89E+02,9.90E+02,9.90E+02,9.90E+02,9.90E+02,9.90E+02,9.90E+02,9.91E+02,9.91E+02,9.91E+02,9.91E+02,9.91E+02,9.91E+02,9.91E+02,9.91E+02,9.91E+02,9.91E+02,9.92E+02,9.92E+02,9.92E+02,9.92E+02,9.92E+02,9.92E+02,9.92E+02,9.92E+02,9.92E+02,9.91E+02,9.91E+02,9.91E+02,9.91E+02,9.91E+02,9.91E+02,9.91E+02,9.90E+02,9.90E+02,9.90E+02,9.90E+02,9.90E+02,9.89E+02,9.89E+02,9.89E+02,9.89E+02,9.89E+02,9.89E+02,9.89E+02,9.89E+02,9.88E+02,9.88E+02,9.88E+02,9.88E+02,9.88E+02,9.89E+02,9.89E+02,9.89E+02,9.89E+02,9.89E+02,9.89E+02,9.89E+02,9.89E+02,9.90E+02,9.90E+02,9.90E+02,9.90E+02,9.91E+02,9.91E+02,9.91E+02,9.91E+02,9.91E+02,9.92E+02,9.92E+02,9.92E+02,9.92E+02,9.93E+02,9.93E+02,9.93E+02,9.93E+02,9.93E+02,9.94E+02,9.94E+02,9.94E+02,9.94E+02,9.95E+02,9.95E+02,9.95E+02,9.95E+02,9.96E+02,9.96E+02,9.96E+02,9.96E+02,9.97E+02,9.97E+02,9.97E+02,9.97E+02,9.98E+02,9.98E+02,9.98E+02,9.98E+02,9.98E+02,9.98E+02,9.98E+02,9.98E+02,9.98E+02,9.98E+02,9.98E+02,9.97E+02,9.97E+02,9.97E+02,9.97E+02,9.96E+02,9.96E+02,9.96E+02,9.96E+02,9.95E+02,9.95E+02,9.95E+02,9.95E+02,9.94E+02,9.94E+02,9.94E+02,9.94E+02,9.93E+02,9.93E+02,9.93E+02,9.92E+02,9.92E+02,9.92E+02,9.92E+02,9.92E+02,9.91E+02,9.91E+02,9.91E+02,9.91E+02,9.90E+02,9.90E+02,9.90E+02,9.90E+02,9.89E+02,9.89E+02,9.89E+02,9.89E+02,9.89E+02,9.89E+02,9.89E+02,9.89E+02,9.88E+02,9.88E+02,9.88E+02,9.88E+02,9.88E+02,9.88E+02,9.88E+02,9.88E+02,9.89E+02,9.89E+02,9.89E+02,9.89E+02,9.89E+02,9.89E+02,9.90E+02,9.90E+02,9.91E+02,9.91E+02,9.91E+02,9.91E+02,9.91E+02,9.92E+02,9.92E+02,9.92E+02,9.92E+02,9.92E+02,9.92E+02,9.92E+02,9.92E+02,9.92E+02,9.92E+02,9.92E+02,9.92E+02,9.93E+02,9.93E+02,9.93E+02,9.93E+02,9.93E+02,9.93E+02,9.93E+02,9.93E+02,9.93E+02,9.93E+02,9.93E+02,9.93E+02,9.93E+02,9.94E+02,9.94E+02,9.94E+02,9.94E+02,9.94E+02,9.94E+02,9.94E+02,9.94E+02,9.94E+02,9.94E+02
0.00E+00,0.00E+00,0.00E+00,0.00E+00,0.00E+00,0.00E+00,0.00E+00,0.00E+00,0.00E+00,0.00E+00,0.00E+00,9.74E+02,9.76E+02,9.77E+02,9.78E+02,9.78E+02,9.78E+02,9.78E+02,9.78E+02,9.78E+02,9.78E+02,9.78E+02,9.78E+02,9.78E+02,9.78E+02,9.78E+02,9.77E+02,9.77E+02,9.77E+02,9.77E+02,9.77E+02,9.77E+02,9.77E+02,9.77E+02,9.77E+02,9.77E+02,9.77E+02,9.77E+02,9.77E+02,9.77E+02,9.77E+02,9.77E+02,9.77E+02,9.77E+02,9.77E+02,9.77E+02,9.77E+02,9.77E+02,9.77E+02,9.77E+02,9.77E+02,9.77E+02,9.77E+02,9.77E+02,9.77E+02,9.77E+02,9.77E+02,9.77E+02,9.77E+02,9.77E+02,9.77E+02,9.77E+02,9.77E+02,9.77E+02,9.77E+02,9.77E+02,9.77E+02,9.77E+02,9.77E+02,9.78E+02,9.78E+02,9.78E+02,9.78E+02,9.78E+02,9.78E+02,9.78E+02,9.78E+02,9.78E+02,9.78E+02,9.78E+02,9.78E+02,9.78E+02,9.78E+02,9.78E+02,9.79E+02,9.79E+02,9.79E+02,9.79E+02,9.79E+02,9.79E+02,9.79E+02,9.79E+02,9.79E+02,9.79E+02,9.80E+02,9.80E+02,9.80E+02,9.80E+02,9.80E+02,9.80E+02,9.80E+02,9.80E+02,9.80E+02,9.81E+02,9.81E+02,9.81E+02,9.81E+02,9.82E+02,9.82E+02,9.82E+02,9.83E+02,9.83E+02,9.83E+02,9.84E+02,9.84E+02,9.84E+02,9.85E+02,9.85E+02,9.85E+02,9.86E+02,9.86E+02,9.86E+02,9.87E+02,9.87E+02,9.87E+02,9.87E+02,9.88E+02,9.88E+02,9.88E+02,9.89E+02,9.89E+02,9.89E+02,9.89E+02,9.89E+02,9.90E+02,9.90E+02,9.90E+02,9.90E+02,9.90E+02,9.90E+02,9.91E+02,9.91E+02,9.91E+02,9.91E+02,9.91E+02,9.91E+02,9.91E+02,9.91E+02,9.91E+02,9.91E+02,9.91E+02,9.91E+02,9.91E+02,9.91E+02,9.91E+02,9.91E+02,9.91E+02,9.91E+02,9.91E+02,9.91E+02,9.91E+02,9.90E+02,9.90E+02,9.90E+02,9.90E+02,9.90E+02,9.90E+02,9.89E+02,9.89E+02,9.89E+02,9.89E+02,9.89E+02,9.89E+02,9.88E+02,9.88E+02,9.88E+02,9.88E+02,9.88E+02,9.88E+02,9.88E+02,9.88E+02,9.88E+02,9.88E+02,9.89E+02,9.89E+02,9.89E+02,9.89E+02,9.89E+02,9.89E+02,9.89E+02,9.90E+02,9.90E+02,9.90E+02,9.90E+02,9.91E+02,9.91E+02,9.91E+02,9.91E+02,9.91E+02,9.92E+02,9.92E+02,9.92E+02,9.92E+02,9.93E+02,9.93E+02,9.93E+02,9.93E+02,9.93E+02,9.94E+02,9.94E+02,9.94E+02,9.94E+02,9.95E+02,9.95E+02,9.95E+02,9.95E+02,9.96E+02,9.96E+02,9.96E+02,9.96E+02,9.96E+02,9.97E+02,9.97E+02,9.97E+02,9.97E+02,9.98E+02,9.98E+02,9.98E+02,9.98E+02,9.98E+02,9.98E+02,9.98E+02,9.98E+02,9.98E+02,9.98E+02,9.98E+02,9.97E+02,9.97E+02,9.97E+02,9.96E+02,9.96E+02,9.96E+02,9.96E+02,9.95E+02,9.95E+02,9.95E+02,9.95E+02,9.94E+02,9.94E+02,9.94E+02,9.94E+02,9.93E+02,9.93E+02,9.93E+02,9.93E+02,9.92E+02,9.92E+02,9.92E+02,9.92E+02,9.91E+02,9.91E+02,9.91E+02,9.91E+02,9.91E+02,9.90E+02,9.90E+02,9.90E+02,9.90E+02,9.90E+02,9.90E+02,9.89E+02,9.89E+02,9.89E+02,9.89E+02,9.89E+02,9.89E+02,9.89E+02,9.89E+02,9.89E+02,9.89E+02,9.89E+02,9.89E+02,9.89E+02,9.89E+02,9.89E+02,9.90E+02,9.90E+02,9.90E+02,9.90E+02,9.91E+02,9.91E+02,9.91E+02,9.92E+02,9.92E+02,9.92E+02,9.92E+02,9.92E+02,9.92E+02,9.92E+02,9.92E+02,9.92E+02,9.92E+02,9.92E+02,9.92E+02,9.92E+02,9.92E+02,9.92E+02,9.93E+02,9.93E+02,9.93E+02,9.93E+02,9.93E+02,9.93E+02,9.93E+02,9.93E+02,9.93E+02,9.93E+02,9.93E+02,9.93E+02,9.93E+02,9.93E+02,9.94E+02,9.94E+02,9.94E+02,9.94E+02,9.94E+02,9.94E+02,9.94E+02,9.94E+02,9.94E+02,9.94E+02
0.00E+00,0.00E+00,0.00E+00,0.00E+00,0.00E+00,0.00E+00,0.00E+00,0.00E+00,0.00E+00,0.00E+00,0.00E+00,9.75E+02,9.76E+02,9.77E+02,9.78E+02,9.78E+02,9.78E+02,9.78E+02,9.78E+02,9.78E+02,9.78E+02,9.78E+02,9.78E+02,9.78E+02,9.78E+02,9.78E+02,9.78E+02,9.78E+02,9.78E+02,9.78E+02,9.77E+02,9.77E+02,9.77E+02,9.77E+02,9.77E+02,9.77E+02,9.77E+02,9.77E+02,9.77E+02,9.77E+02,9.77E+02,9.77E+02,9.77E+02,9.77E+02,9.77E+02,9.77E+02,9.77E+02,9.77E+02,9.77E+02,9.77E+02,9.77E+02,9.77E+02,9.77E+02,9.77E+02,9.77E+02,9.77E+02,9.77E+02,9.77E+02,9.77E+02,9.77E+02,9.77E+02,9.77E+02,9.77E+02,9.77E+02,9.78E+02,9.78E+02,9.78E+02,9.78E+02,9.78E+02,9.78E+02,9.78E+02,9.78E+02,9.78E+02,9.78E+02,9.78E+02,9.78E+02,9.78E+02,9.78E+02,9.78E+02,9.78E+02,9.78E+02,9.78E+02,9.79E+02,9.79E+02,9.79E+02,9.79E+02,9.79E+02,9.79E+02,9.79E+02,9.79E+02,9.79E+02,9.79E+02,9.79E+02,9.80E+02,9.80E+02,9.80E+02,9.80E+02,9.80E+02,9.80E+02,9.80E+02,9.80E+02,9.80E+02,9.80E+02,9.81E+02,9.81E+02,9.81E+02,9.81E+02,9.82E+02,9.82E+02,9.82E+02,9.83E+02,9.83E+02,9.83E+02,9.84E+02,9.84E+02,9.84E+02,9.85E+02,9.85E+02,9.85E+02,9.85E+02,9.86E+02,9.86E+02,9.86E+02,9.87E+02,9.87E+02,9.87E+02,9.87E+02,9.88E+02,9.88E+02,9.88E+02,9.88E+02,9.89E+02,9.89E+02,9.89E+02,9.89E+02,9.89E+02,9.90E+02,9.90E+02,9.90E+02,9.90E+02,9.90E+02,9.90E+02,9.90E+02,9.90E+02,9.90E+02,9.91E+02,9.91E+02,9.91E+02,9.91E+02,9.91E+02,9.91E+02,9.91E+02,9.91E+02,9.91E+02,9.91E+02,9.91E+02,9.91E+02,9.90E+02,9.90E+02,9.90E+02,9.90E+02,9.90E+02,9.90E+02,9.90E+02,9.89E+02,9.89E+02,9.89E+02,9.89E+02,9.89E+02,9.89E+02,9.88E+02,9.88E+02,9.88E+02,9.88E+02,9.88E+02,9.88E+02,9.88E+02,9.88E+02,9.88E+02,9.88E+02,9.88E+02,9.88E+02,9.88E+02,9.88E+02,9.89E+02,9.89E+02,9.89E+02,9.89E+02,9.89E+02,9.89E+02,9.90E+02,9.90E+02,9.90E+02,9.90E+02,9.91E+02,9.91E+02,9.91E+02,9.91E+02,9.91E+02,9.92E+02,9.92E+02,9.92E+02,9.92E+02,9.92E+02,9.93E+02,9.93E+02,9.93E+02,9.93E+02,9.94E+02,9.94E+02,9.94E+02,9.94E+02,9.94E+02,9.95E+02,9.95E+02,9.95E+02,9.95E+02,9.96E+02,9.96E+02,9.96E+02,9.96E+02,9.97E+02,9.97E+02,9.97E+02,9.97E+02,9.98E+02,9.98E+02,9.98E+02,9.98E+02,9.98E+02,9.98E+02,9.98E+02,9.98E+02,9.98E+02,9.98E+02,9.98E+02,9.97E+02,9.97E+02,9.97E+02,9.97E+02,9.96E+02,9.96E+02,9.96E+02,9.96E+02,9.95E+02,9.95E+02,9.95E+02,9.95E+02,9.94E+02,9.94E+02,9.94E+02,9.94E+02,9.93E+02,9.93E+02,9.93E+02,9.93E+02,9.92E+02,9.92E+02,9.92E+02,9.92E+02,9.92E+02,9.91E+02,9.91E+02,9.91E+02,9.91E+02,9.91E+02,9.90E+02,9.90E+02,9.90E+02,9.90E+02,9.90E+02,9.90E+02,9.90E+02,9.90E+02,9.90E+02,9.89E+02,9.89E+02,9.89E+02,9.89E+02,9.89E+02,9.90E+02,9.90E+02,9.90E+02,9.90E+02,9.90E+02,9.90E+02,9.91E+02,9.91E+02,9.91E+02,9.91E+02,9.92E+02,9.92E+02,9.92E+02,9.92E+02,9.92E+02,9.92E+02,9.92E+02,9.92E+02,9.92E+02,9.92E+02,9.92E+02,9.92E+02,9.92E+02,9.92E+02,9.92E+02,9.93E+02,9.93E+02,9.93E+02,9.93E+02,9.93E+02,9.93E+02,9.93E+02,9.93E+02,9.93E+02,9.93E+02,9.93E+02,9.93E+02,9.93E+02,9.93E+02,9.93E+02,9.93E+02,9.93E+02,9.94E+02,9.94E+02,9.94E+02,9.94E+02,9.94E+02,9.94E+02,9.94E+02,9.94E+02,9.94E+02
0.00E+00,0.00E+00,0.00E+00,0.00E+00,0.00E+00,0.00E+00,0.00E+00,0.00E+00,0.00E+00,0.00E+00,0.00E+00,9.75E+02,9.76E+02,9.77E+02,9.78E+02,9.79E+02,9.78E+02,9.78E+02,9.78E+02,9.78E+02,9.78E+02,9.78E+02,9.78E+02,9.78E+02,9.78E+02,9.78E+02,9.78E+02,9.78E+02,9.78E+02,9.78E+02,9.78E+02,9.78E+02,9.78E+02,9.78E+02,9.78E+02,9.77E+02,9.77E+02,9.77E+02,9.77E+02,9.77E+02,9.77E+02,9.77E+02,9.77E+02,9.77E+02,9.77E+02,9.77E+02,9.77E+02,9.77E+02,9.77E+02,9.77E+02,9.77E+02,9.77E+02,9.77E+02,9.77E+02,9.77E+02,9.77E+02,9.77E+02,9.77E+02,9.78E+02,9.78E+02,9.78E+02,9.78E+02,9.78E+02,9.78E+02,9.78E+02,9.78E+02,9.78E+02,9.78E+02,9.78E+02,9.78E+02,9.78E+02,9.78E+02,9.78E+02,9.78E+02,9.78E+02,9.78E+02,9.78E+02,9.78E+02,9.78E+02,9.79E+02,9.79E+02,9.79E+02,9.79E+02,9.79E+02,9.79E+02,9.79E+02,9.79E+02,9.79E+02,9.79E+02,9.79E+02,9.79E+02,9.80E+02,9.80E+02,9.80E+02,9.80E+02,9.80E+02,9.80E+02,9.80E+02,9.80E+02,9.80E+02,9.80E+02,9.80E+02,9.80E+02,9.81E+02,9.81E+02,9.81E+02,9.81E+02,9.82E+02,9.82E+02,9.82E+02,9.83E+02,9.83E+02,9.83E+02,9.84E+02,9.84E+02,9.84E+02,9.84E+02,9.85E+02,9.85E+02,9.85E+02,9.86E+02,9.86E+02,9.86E+02,9.86E+02,9.87E+02,9.87E+02,9.87E+02,9.87E+02,9.88E+02,9.88E+02,9.88E+02,9.88E+02,9.89E+02,9.89E+02,9.89E+02,9.89E+02,9.89E+02,9.89E+02,9.90E+02,9.90E+02,9.90E+02,9.90E+02,9.90E+02,9.90E+02,9.90E+02,9.90E+02,9.90E+02,9.90E+02,9.90E+02,9.90E+02,9.90E+02,9.90E+02,9.90E+02,9.90E+02,9.90E+02,9.90E+02,9.90E+02,9.90E+02,9.90E+02,9.90E+02,9.90E+02,9.90E+02,9.89E+02,9.89E+02,9.89E+02,9.89E+02,9.89E+02,9.88E+02,9.88E+02,9.88E+02,9.88E+02,9.88E+02,9.88E+02,9.88E+02,9.88E+02,9.88E+02,9.88E+02,9.88E+02,9.88E+02,9.88E+02,9.88E+02,9.88E+02,9.88E+02,9.88E+02,9.89E+02,9.89E+02,9.89E+02,9.89E+02,9.89E+02,9.89E+02,9.90E+02,9.90E+02,9.90E+02,9.90E+02,9.90E+02,9.91E+02,9.91E+02,9.91E+02,9.91E+02,9.92E+02,9.92E+02,9.92E+02,9.92E+02,9.92E+02,9.93E+02,9.93E+02,9.93E+02,9.93E+02,9.94E+02,9.94E+02,9.94E+02,9.94E+02,9.94E+02,9.95E+02,9.95E+02,9.95E+02,9.95E+02,9.96E+02,9.96E+02,9.96E+02,9.96E+02,9.96E+02,9.97E+02,9.97E+02,9.97E+02,9.97E+02,9.98E+02,9.98E+02,9.98E+02,9.98E+02,9.98E+02,9.98E+02,9.98E+02,9.98E+02,9.98E+02,9.98E+02,9.97E+02,9.97E+02,9.97E+02,9.97E+02,9.96E+02,9.96E+02,9.96E+02,9.96E+02,9.95E+02,9.95E+02,9.95E+02,9.95E+02,9.94E+02,9.94E+02,9.94E+02,9.94E+02,9.94E+02,9.93E+02,9.93E+02,9.93E+02,9.93E+02,9.92E+02,9.92E+02,9.92E+02,9.92E+02,9.92E+02,9.91E+02,9.91E+02,9.91E+02,9.91E+02,9.91E+02,9.91E+02,9.91E+02,9.90E+02,9.90E+02,9.90E+02,9.90E+02,9.90E+02,9.90E+02,9.90E+02,9.90E+02,9.90E+02,9.90E+02,9.90E+02,9.90E+02,9.90E+02,9.90E+02,9.90E+02,9.91E+02,9.91E+02,9.91E+02,9.91E+02,9.92E+02,9.92E+02,9.92E+02,9.93E+02,9.93E+02,9.93E+02,9.93E+02,9.93E+02,9.92E+02,9.92E+02,9.92E+02,9.92E+02,9.92E+02,9.92E+02,9.93E+02,9.93E+02,9.93E+02,9.93E+02,9.93E+02,9.93E+02,9.93E+02,9.93E+02,9.93E+02,9.93E+02,9.93E+02,9.93E+02,9.93E+02,9.93E+02,9.93E+02,9.93E+02,9.93E+02,9.93E+02,9.93E+02,9.93E+02,9.94E+02,9.94E+02,9.94E+02,9.94E+02,9.94E+02,9.94E+02,9.94E+02,9.94E+02,9.94E+02
0.00E+00,0.00E+00,0.00E+00,0.00E+00,0.00E+00,0.00E+00,0.00E+00,0.00E+00,0.00E+00,0.00E+00,0.00E+00,9.75E+02,9.76E+02,9.77E+02,9.79E+02,9.79E+02,9.78E+02,9.78E+02,9.78E+02,9.78E+02,9.78E+02,9.78E+02,9.78E+02,9.78E+02,9.78E+02,9.78E+02,9.78E+02,9.78E+02,9.78E+02,9.78E+02,9.78E+02,9.78E+02,9.78E+02,9.78E+02,9.78E+02,9.78E+02,9.78E+02,9.78E+02,9.78E+02,9.78E+02,9.78E+02,9.78E+02,9.78E+02,9.78E+02,9.78E+02,9.78E+02,9.78E+02,9.78E+02,9.78E+02,9.78E+02,9.78E+02,9.78E+02,9.78E+02,9.78E+02,9.78E+02,9.78E+02,9.78E+02,9.78E+02,9.78E+02,9.78E+02,9.78E+02,9.78E+02,9.78E+02,9.78E+02,9.78E+02,9.78E+02,9.78E+02,9.78E+02,9.78E+02,9.78E+02,9.78E+02,9.78E+02,9.78E+02,9.78E+02,9.78E+02,9.78E+02,9.79E+02,9.79E+02,9.79E+02,9.79E+02,9.79E+02,9.79E+02,9.79E+02,9.79E+02,9.79E+02,9.79E+02,9.79E+02,9.79E+02,9.79E+02,9.79E+02,9.80E+02,9.80E+02,9.80E+02,9.80E+02,9.80E+02,9.80E+02,9.80E+02,9.80E+02,9.80E+02,9.80E+02,9.80E+02,9.80E+02,9.81E+02,9.81E+02,9.81E+02,9.81E+02,9.81E+02,9.82E+02,9.82E+02,9.82E+02,9.83E+02,9.83E+02,9.83E+02,9.83E+02,9.84E+02,9.84E+02,9.84E+02,9.85E+02,9.85E+02,9.85E+02,9.85E+02,9.86E+02,9.86E+02,9.86E+02,9.86E+02,9.87E+02,9.87E+02,9.87E+02,9.87E+02,9.88E+02,9.88E+02,9.88E+02,9.88E+02,9.88E+02,9.89E+02,9.89E+02,9.89E+02,9.89E+02,9.89E+02,9.89E+02,9.89E+02,9.89E+02,9.90E+02,9.90E+02,9.90E+02,9.90E+02,9.90E+02,9.90E+02,9.90E+02,9.90E+02,9.90E+02,9.90E+02,9.90E+02,9.90E+02,9.90E+02,9.90E+02,9.90E+02,9.90E+02,9.89E+02,9.89E+02,9.89E+02,9.89E+02,9.89E+02,9.89E+02,9.88E+02,9.88E+02,9.88E+02,9.88E+02,9.88E+02,9.88E+02,9.88E+02,9.88E+02,9.88E+02,9.88E+02,9.88E+02,9.88E+02,9.88E+02,9.88E+02,9.88E+02,9.88E+02,9.88E+02,9.88E+02,9.88E+02,9.88E+02,9.89E+02,9.89E+02,9.89E+02,9.89E+02,9.89E+02,9.89E+02,9.90E+02,9.90E+02,9.90E+02,9.90E+02,9.90E+02,9.91E+02,9.91E+02,9.91E+02,9.91E+02,9.92E+02,9.92E+02,9.92E+02,9.92E+02,9.92E+02,9.93E+02,9.93E+02,9.93E+02,9.93E+02,9.93E+02,9.94E+02,9.94E+02,9.94E+02,9.94E+02,9.95E+02,9.95E+02,9.95E+02,9.95E+02,9.95E+02,9.96E+02,9.96E+02,9.96E+02,9.96E+02,9.97E+02,9.97E+02,9.97E+02,9.97E+02,9.97E+02,9.98E+02,9.98E+02,9.98E+02,9.98E+02,9.98E+02,9.98E+02,9.98E+02,9.98E+02,9.98E+02,9.97E+02,9.97E+02,9.97E+02,9.97E+02,9.97E+02,9.96E+02,9.96E+02,9.96E+02,9.96E+02,9.95E+02,9.95E+02,9.95E+02,9.95E+02,9.94E+02,9.94E+02,9.94E+02,9.94E+02,9.94E+02,9.93E+02,9.93E+02,9.93E+02,9.93E+02,9.92E+02,9.92E+02,9.92E+02,9.92E+02,9.92E+02,9.92E+02,9.91E+02,9.91E+02,9.91E+02,9.91E+02,9.91E+02,9.91E+02,9.91E+02,9.91E+02,9.90E+02,9.90E+02,9.90E+02,9.90E+02,9.90E+02,9.90E+02,9.90E+02,9.90E+02,9.90E+02,9.91E+02,9.91E+02,9.91E+02,9.91E+02,9.91E+02,9.92E+02,9.92E+02,9.92E+02,9.93E+02,9.93E+02,9.93E+02,9.93E+02,9.93E+02,9.93E+02,9.93E+02,9.93E+02,9.93E+02,9.93E+02,9.93E+02,9.93E+02,9.93E+02,9.93E+02,9.93E+02,9.93E+02,9.93E+02,9.93E+02,9.93E+02,9.93E+02,9.93E+02,9.93E+02,9.93E+02,9.93E+02,9.93E+02,9.93E+02,9.93E+02,9.93E+02,9.93E+02,9.93E+02,9.93E+02,9.93E+02,9.93E+02,9.93E+02,9.94E+02,9.94E+02,9.94E+02,9.94E+02,9.94E+02,9.94E+02,9.94E+02,9.94E+02
0.00E+00,0.00E+00,0.00E+00,0.00E+00,0.00E+00,0.00E+00,0.00E+00,0.00E+00,0.00E+00,0.00E+00,0.00E+00,9.75E+02,9.76E+02,9.78E+02,9.79E+02,9.79E+02,9.79E+02,9.78E+02,9.78E+02,9.78E+02,9.78E+02,9.78E+02,9.78E+02,9.78E+02,9.78E+02,9.78E+02,9.78E+02,9.78E+02,9.78E+02,9.78E+02,9.78E+02,9.78E+02,9.78E+02,9.78E+02,9.78E+02,9.78E+02,9.78E+02,9.78E+02,9.78E+02,9.78E+02,9.78E+02,9.78E+02,9.78E+02,9.78E+02,9.78E+02,9.78E+02,9.78E+02,9.78E+02,9.78E+02,9.78E+02,9.78E+02,9.78E+02,9.78E+02,9.78E+02,9.78E+02,9.78E+02,9.78E+02,9.78E+02,9.78E+02,9.78E+02,9.78E+02,9.78E+02,9.78E+02,9.78E+02,9.78E+02,9.78E+02,9.78E+02,9.78E+02,9.78E+02,9.78E+02,9.78E+02,9.78E+02,9.78E+02,9.79E+02,9.79E+02,9.79E+02,9.79E+02,9.79E+02,9.79E+02,9.79E+02,9.79E+02,9.79E+02,9.79E+02,9.79E+02,9.79E+02,9.79E+02,9.79E+02,9.79E+02,9.80E+02,9.80E+02,9.80E+02,9.80E+02,9.80E+02,9.80E+02,9.80E+02,9.80E+02,9.80E+02,9.80E+02,9.80E+02,9.80E+02,9.80E+02,9.81E+02,9.81E+02,9.81E+02,9.81E+02,9.81E+02,9.81E+02,9.82E+02,9.82E+02,9.82E+02,9.83E+02,9.83E+02,9.83E+02,9.83E+02,9.84E+02,9.84E+02,9.84E+02,9.84E+02,9.85E+02,9.85E+02,9.85E+02,9.85E+02,9.86E+02,9.86E+02,9.86E+02,9.86E+02,9.87E+02,9.87E+02,9.87E+02,9.87E+02,9.88E+02,9.88E+02,9.88E+02,9.88E+02,9.88E+02,9.88E+02,9.89E+02,9.89E+02,9.89E+02,9.89E+02,9.89E+02,9.89E+02,9.89E+02,9.89E+02,9.89E+02,9.89E+02,9.89E+02,9.89E+02,9.89E+02,9.89E+02,9.89E+02,9.89E+02,9.89E+02,9.89E+02,9.89E+02,9.89E+02,9.89E+02,9.89E+02,9.89E+02,9.89E+02,9.89E+02,9.89E+02,9.88E+02,9.88E+02,9.88E+02,9.88E+02,9.88E+02,9.88E+02,9.88E+02,9.88E+02,9.88E+02,9.87E+02,9.88E+02,9.88E+02,9.88E+02,9.88E+02,9.88E+02,9.88E+02,9.88E+02,9.88E+02,9.88E+02,9.88E+02,9.88E+02,9.88E+02,9.88E+02,9.89E+02,9.89E+02,9.89E+02,9.89E+02,9.89E+02,9.90E+02,9.90E+02,9.90E+02,9.90E+02,9.90E+02,9.91E+02,9.91E+02,9.91E+02,9.91E+02,9.91E+02,9.92E+02,9.92E+02,9.92E+02,9.92E+02,9.93E+02,9.93E+02,9.93E+02,9.93E+02,9.93E+02,9.94E+02,9.94E+02,9.94E+02,9.94E+02,9.94E+02,9.95E+02,9.95E+02,9.95E+02,9.95E+02,9.96E+02,9.96E+02,9.96E+02,9.96E+02,9.96E+02,9.97E+02,9.97E+02,9.97E+02,9.97E+02,9.97E+02,9.97E+02,9.98E+02,9.98E+02,9.98E+02,9.98E+02,9.98E+02,9.98E+02,9.98E+02,9.97E+02,9.97E+02,9.97E+02,9.97E+02,9.97E+02,9.97E+02,9.96E+02,9.96E+02,9.96E+02,9.96E+02,9.95E+02,9.95E+02,9.95E+02,9.95E+02,9.94E+02,9.94E+02,9.94E+02,9.94E+02,9.94E+02,9.93E+02,9.93E+02,9.93E+02,9.93E+02,9.93E+02,9.92E+02,9.92E+02,9.92E+02,9.92E+02,9.92E+02,9.92E+02,9.91E+02,9.91E+02,9.91E+02,9.91E+02,9.91E+02,9.91E+02,9.91E+02,9.91E+02,9.91E+02,9.91E+02,9.91E+02,9.91E+02,9.91E+02,9.91E+02,9.91E+02,9.91E+02,9.91E+02,9.91E+02,9.91E+02,9.92E+02,9.92E+02,9.92E+02,9.93E+02,9.93E+02,9.94E+02,9.94E+02,9.94E+02,9.93E+02,9.93E+02,9.93E+02,9.93E+02,9.93E+02,9.93E+02,9.93E+02,9.93E+02,9.93E+02,9.93E+02,9.93E+02,9.93E+02,9.93E+02,9.93E+02,9.93E+02,9.93E+02,9.93E+02,9.93E+02,9.93E+02,9.93E+02,9.93E+02,9.93E+02,9.93E+02,9.93E+02,9.93E+02,9.93E+02,9.93E+02,9.93E+02,9.93E+02,9.93E+02,9.94E+02,9.94E+02,9.94E+02,9.94E+02,9.94E+02,9.94E+02,9.94E+02,9.94E+02
0.00E+00,0.00E+00,0.00E+00,0.00E+00,0.00E+00,0.00E+00,0.00E+00,0.00E+00,0.00E+00,0.00E+00,0.00E+00,9.75E+02,9.76E+02,9.78E+02,9.79E+02,9.79E+02,9.79E+02,9.79E+02,9.78E+02,9.78E+02,9.78E+02,9.78E+02,9.78E+02,9.78E+02,9.78E+02,9.78E+02,9.78E+02,9.78E+02,9.78E+02,9.78E+02,9.78E+02,9.78E+02,9.78E+02,9.78E+02,9.78E+02,9.78E+02,9.78E+02,9.78E+02,9.78E+02,9.78E+02,9.78E+02,9.78E+02,9.78E+02,9.78E+02,9.78E+02,9.78E+02,9.78E+02,9.78E+02,9.78E+02,9.78E+02,9.78E+02,9.78E+02,9.78E+02,9.78E+02,9.78E+02,9.78E+02,9.78E+02,9.78E+02,9.78E+02,9.78E+02,9.78E+02,9.78E+02,9.78E+02,9.78E+02,9.78E+02,9.78E+02,9.78E+02,9.78E+02,9.78E+02,9.79E+02,9.79E+02,9.79E+02,9.79E+02,9.79E+02,9.79E+02,9.79E+02,9.79E+02,9.79E+02,9.79E+02,9.79E+02,9.79E+02,9.79E+02,9.79E+02,9.79E+02,9.79E+02,9.79E+02,9.80E+02,9.80E+02,9.80E+02,9.80E+02,9.80E+02,9.80E+02,9.80E+02,9.80E+02,9.80E+02,9.80E+02,9.80E+02,9.80E+02,9.80E+02,9.81E+02,9.81E+02,9.81E+02,9.81E+02,9.81E+02,9.81E+02,9.81E+02,9.81E+02,9.82E+02,9.82E+02,9.82E+02,9.83E+02,9.83E+02,9.83E+02,9.83E+02,9.84E+02,9.84E+02,9.84E+02,9.84E+02,9.85E+02,9.85E+02,9.85E+02,9.85E+02,9.86E+02,9.86E+02,9.86E+02,9.86E+02,9.86E+02,9.87E+02,9.87E+02,9.87E+02,9.87E+02,9.87E+02,9.88E+02,9.88E+02,9.88E+02,9.88E+02,9.88E+02,9.88E+02,9.88E+02,9.89E+02,9.89E+02,9.89E+02,9.89E+02,9.89E+02,9.89E+02,9.89E+02,9.89E+02,9.89E+02,9.89E+02,9.89E+02,9.89E+02,9.89E+02,9.89E+02,9.89E+02,9.89E+02,9.89E+02,9.89E+02,9.89E+02,9.88E+02,9.88E+02,9.88E+02,9.88E+02,9.88E+02,9.88E+02,9.88E+02,9.87E+02,9.87E+02,9.87E+02,9.87E+02,9.87E+02,9.87E+02,9.87E+02,9.87E+02,9.87E+02,9.87E+02,9.87E+02,9.88E+02,9.88E+02,9.88E+02,9.88E+02,9.88E+02,9.88E+02,9.88E+02,9.88E+02,9.88E+02,9.89E+02,9.89E+02,9.89E+02,9.89E+02,9.89E+02,9.90E+02,9.90E+02,9.90E+02,9.90E+02,9.90E+02,9.91E+02,9.91E+02,9.91E+02,9.91E+02,9.91E+02,9.92E+02,9.92E+02,9.92E+02,9.92E+02,9.92E+02,9.93E+02,9.93E+02,9.93E+02,9.93E+02,9.94E+02,9.94E+02,9.94E+02,9.94E+02,9.94E+02,9.95E+02,9.95E+02,9.95E+02,9.95E+02,9.95E+02,9.96E+02,9.96E+02,9.96E+02,9.96E+02,9.97E+02,9.97E+02,9.97E+02,9.97E+02,9.97E+02,9.97E+02,9.97E+02,9.97E+02,9.97E+02,9.98E+02,9.98E+02,9.97E+02,9.97E+02,9.97E+02,9.97E+02,9.97E+02,9.97E+02,9.97E+02,9.97E+02,9.96E+02,9.96E+02,9.96E+02,9.96E+02,9.96E+02,9.95E+02,9.95E+02,9.95E+02,9.95E+02,9.94E+02,9.94E+02,9.94E+02,9.94E+02,9.94E+02,9.93E+02,9.93E+02,9.93E+02,9.93E+02,9.93E+02,9.92E+02,9.92E+02,9.92E+02,9.92E+02,9.92E+02,9.92E+02,9.92E+02,9.91E+02,9.91E+02,9.91E+02,9.91E+02,9.91E+02,9.91E+02,9.91E+02,9.91E+02,9.91E+02,9.91E+02,9.91E+02,9.91E+02,9.91E+02,9.91E+02,9.91E+02,9.92E+02,9.92E+02,9.92E+02,9.92E+02,9.93E+02,9.93E+02,9.93E+02,9.94E+02,9.94E+02,9.94E+02,9.94E+02,9.94E+02,9.93E+02,9.93E+02,9.93E+02,9.93E+02,9.93E+02,9.93E+02,9.93E+02,9.93E+02,9.93E+02,9.93E+02,9.93E+02,9.93E+02,9.93E+02,9.93E+02,9.93E+02,9.93E+02,9.93E+02,9.93E+02,9.93E+02,9.93E+02,9.93E+02,9.93E+02,9.93E+02,9.93E+02,9.93E+02,9.93E+02,9.93E+02,9.93E+02,9.93E+02,9.94E+02,9.94E+02,9.94E+02,9.94E+02,9.94E+02,9.94E+02,9.94E+02
0.00E+00,0.00E+00,0.00E+00,0.00E+00,0.00E+00,0.00E+00,0.00E+00,0.00E+00,0.00E+00,0.00E+00,0.00E+00,9.75E+02,9.77E+02,9.78E+02,9.79E+02,9.79E+02,9.79E+02,9.79E+02,9.79E+02,9.79E+02,9.79E+02,9.79E+02,9.78E+02,9.78E+02,9.78E+02,9.78E+02,9.78E+02,9.78E+02,9.78E+02,9.78E+02,9.78E+02,9.78E+02,9.78E+02,9.78E+02,9.78E+02,9.78E+02,9.78E+02,9.78E+02,9.78E+02,9.78E+02,9.78E+02,9.78E+02,9.78E+02,9.78E+02,9.78E+02,9.78E+02,9.78E+02,9.78E+02,9.78E+02,9.78E+02,9.78E+02,9.78E+02,9.78E+02,9.78E+02,9.78E+02,9.78E+02,9.78E+02,9.78E+02,9.78E+02,9.78E+02,9.78E+02,9.78E+02,9.78E+02,9.78E+02,9.78E+02,9.79E+02,9.79E+02,9.79E+02,9.79E+02,9.79E+02,9.79E+02,9.79E+02,9.79E+02,9.79E+02,9.79E+02,9.79E+02,9.79E+02,9.79E+02,9.79E+02,9.79E+02,9.79E+02,9.79E+02,9.79E+02,9.79E+02,9.80E+02,9.80E+02,9.80E+02,9.80E+02,9.80E+02,9.80E+02,9.80E+02,9.80E+02,9.80E+02,9.80E+02,9.80E+02,9.80E+02,9.80E+02,9.81E+02,9.81E+02,9.81E+02,9.81E+02,9.81E+02,9.81E+02,9.81E+02,9.81E+02,9.81E+02,9.82E+02,9.82E+02,9.82E+02,9.82E+02,9.83E+02,9.83E+02,9.83E+02,9.83E+02,9.84E+02,9.84E+02,9.84E+02,9.84E+02,9.84E+02,9.85E+02,9.85E+02,9.85E+02,9.85E+02,9.86E+02,9.86E+02,9.86E+02,9.86E+02,9.86E+02,9.87E+02,9.87E+02,9.87E+02,9.87E+02,9.87E+02,9.87E+02,9.88E+02,9.88E+02,9.88E+02,9.88E+02,9.88E+02,9.88E+02,9.88E+02,9.88E+02,9.88E+02,9.88E+02,9.88E+02,9.88E+02,9.89E+02,9.89E+02,9.89E+02,9.89E+02,9.88E+02,9.88E+02,9.88E+02,9.88E+02,9.88E+02,9.88E+02,9.88E+02,9.88E+02,9.88E+02,9.88E+02,9.88E+02,9.88E+02,9.87E+02,9.87E+02,9.87E+02,9.87E+02,9.87E+02,9.87E+02,9.87E+02,9.87E+02,9.87E+02,9.87E+02,9.87E+02,9.87E+02,9.87E+02,9.87E+02,9.87E+02,9.88E+02,9.88E+02,9.88E+02,9.88E+02,9.88E+02,9.88E+02,9.88E+02,9.88E+02,9.89E+02,9.89E+02,9.89E+02,9.89E+02,9.89E+02,9.90E+02,9.90E+02,9.90E+02,9.90E+02,9.90E+02,9.91E+02,9.91E+02,9.91E+02,9.91E+02,9.91E+02,9.92E+02,9.92E+02,9.92E+02,9.92E+02,9.92E+02,9.93E+02,9.93E+02,9.93E+02,9.93E+02,9.93E+02,9.94E+02,9.94E+02,9.94E+02,9.94E+02,9.95E+02,9.95E+02,9.95E+02,9.95E+02,9.95E+02,9.96E+02,9.96E+02,9.96E+02,9.96E+02,9.96E+02,9.97E+02,9.97E+02,9.97E+02,9.97E+02,9.97E+02,9.97E+02,9.97E+02,9.97E+02,9.97E+02,9.97E+02,9.97E+02,9.97E+02,9.97E+02,9.97E+02,9.97E+02,9.97E+02,9.97E+02,9.97E+02,9.97E+02,9.96E+02,9.96E+02,9.96E+02,9.96E+02,9.95E+02,9.95E+02,9.95E+02,9.95E+02,9.95E+02,9.94E+02,9.94E+02,9.94E+02,9.94E+02,9.94E+02,9.93E+02,9.93E+02,9.93E+02,9.93E+02,9.93E+02,9.93E+02,9.92E+02,9.92E+02,9.92E+02,9.92E+02,9.92E+02,9.92E+02,9.92E+02,9.92E+02,9.92E+02,9.91E+02,9.91E+02,9.91E+02,9.91E+02,9.91E+02,9.91E+02,9.91E+02,9.91E+02,9.91E+02,9.92E+02,9.92E+02,9.92E+02,9.92E+02,9.92E+02,9.92E+02,9.93E+02,9.93E+02,9.93E+02,9.94E+02,9.94E+02,9.94E+02,9.94E+02,9.94E+02,9.94E+02,9.93E+02,9.93E+02,9.93E+02,9.93E+02,9.93E+02,9.93E+02,9.93E+02,9.93E+02,9.93E+02,9.93E+02,9.93E+02,9.93E+02,9.93E+02,9.93E+02,9.93E+02,9.93E+02,9.93E+02,9.93E+02,9.93E+02,9.93E+02,9.93E+02,9.93E+02,9.93E+02,9.93E+02,9.93E+02,9.93E+02,9.93E+02,9.93E+02,9.93E+02,9.94E+02,9.94E+02,9.94E+02,9.94E+02,9.94E+02,9.94E+02
0.00E+00,0.00E+00,0.00E+00,0.00E+00,0.00E+00,0.00E+00,0.00E+00,0.00E+00,0.00E+00,0.00E+00,9.74E+02,9.75E+02,9.77E+02,9.78E+02,9.79E+02,9.79E+02,9.79E+02,9.79E+02,9.79E+02,9.79E+02,9.79E+02,9.79E+02,9.79E+02,9.79E+02,9.79E+02,9.79E+02,9.79E+02,9.78E+02,9.78E+02,9.78E+02,9.78E+02,9.78E+02,9.78E+02,9.78E+02,9.78E+02,9.78E+02,9.78E+02,9.78E+02,9.78E+02,9.78E+02,9.78E+02,9.78E+02,9.78E+02,9.78E+02,9.78E+02,9.78E+02,9.78E+02,9.78E+02,9.78E+02,9.78E+02,9.78E+02,9.78E+02,9.78E+02,9.78E+02,9.78E+02,9.78E+02,9.78E+02,9.78E+02,9.78E+02,9.79E+02,9.79E+02,9.79E+02,9.79E+02,9.79E+02,9.79E+02,9.79E+02,9.79E+02,9.79E+02,9.79E+02,9.79E+02,9.79E+02,9.79E+02,9.79E+02,9.79E+02,9.79E+02,9.79E+02,9.79E+02,9.79E+02,9.79E+02,9.79E+02,9.79E+02,9.80E+02,9.80E+02,9.80E+02,9.80E+02,9.80E+02,9.80E+02,9.80E+02,9.80E+02,9.80E+02,9.80E+02,9.80E+02,9.80E+02,9.80E+02,9.80E+02,9.81E+02,9.81E+02,9.81E+02,9.81E+02,9.81E+02,9.81E+02,9.81E+02,9.81E+02,9.81E+02,9.81E+02,9.81E+02,9.82E+02,9.82E+02,9.82E+02,9.82E+02,9.82E+02,9.83E+02,9.83E+02,9.83E+02,9.83E+02,9.84E+02,9.84E+02,9.84E+02,9.84E+02,9.85E+02,9.85E+02,9.85E+02,9.85E+02,9.85E+02,9.86E+02,9.86E+02,9.86E+02,9.86E+02,9.86E+02,9.87E+02,9.87E+02,9.87E+02,9.87E+02,9.87E+02,9.87E+02,9.87E+02,9.88E+02,9.88E+02,9.88E+02,9.88E+02,9.88E+02,9.88E+02,9.88E+02,9.88E+02,9.88E+02,9.88E+02,9.88E+02,9.88E+02,9.88E+02,9.88E+02,9.88E+02,9.88E+02,9.88E+02,9.88E+02,9.88E+02,9.88E+02,9.88E+02,9.88E+02,9.88E+02,9.87E+02,9.87E+02,9.87E+02,9.87E+02,9.87E+02,9.87E+02,9.87E+02,9.87E+02,9.87E+02,9.87E+02,9.87E+02,9.87E+02,9.87E+02,9.87E+02,9.87E+02,9.87E+02,9.87E+02,9.87E+02,9.87E+02,9.88E+02,9.88E+02,9.88E+02,9.88E+02,9.88E+02,9.88E+02,9.88E+02,9.89E+02,9.89E+02,9.89E+02,9.89E+02,9.89E+02,9.90E+02,9.90E+02,9.90E+02,9.90E+02,9.90E+02,9.91E+02,9.91E+02,9.91E+02,9.91E+02,9.91E+02,9.92E+02,9.92E+02,9.92E+02,9.92E+02,9.92E+02,9.93E+02,9.93E+02,9.93E+02,9.93E+02,9.93E+02,9.94E+02,9.94E+02,9.94E+02,9.94E+02,9.94E+02,9.95E+02,9.95E+02,9.95E+02,9.95E+02,9.96E+02,9.96E+02,9.96E+02,9.96E+02,9.96E+02,9.97E+02,9.97E+02,9.97E+02,9.97E+02,9.97E+02,9.97E+02,9.97E+02,9.97E+02,9.97E+02,9.97E+02,9.97E+02,9.97E+02,9.97E+02,9.97E+02,9.97E+02,9.97E+02,9.97E+02,9.97E+02,9.97E+02,9.97E+02,9.96E+02,9.96E+02,9.96E+02,9.96E+02,9.95E+02,9.95E+02,9.95E+02,9.95E+02,9.95E+02,9.94E+02,9.94E+02,9.94E+02,9.94E+02,9.94E+02,9.93E+02,9.93E+02,9.93E+02,9.93E+02,9.93E+02,9.93E+02,9.93E+02,9.92E+02,9.92E+02,9.92E+02,9.92E+02,9.92E+02,9.92E+02,9.92E+02,9.92E+02,9.92E+02,9.92E+02,9.92E+02,9.92E+02,9.92E+02,9.92E+02,9.92E+02,9.92E+02,9.92E+02,9.92E+02,9.92E+02,9.92E+02,9.92E+02,9.93E+02,9.93E+02,9.93E+02,9.93E+02,9.94E+02,9.94E+02,9.94E+02,9.94E+02,9.94E+02,9.94E+02,9.94E+02,9.94E+02,9.93E+02,9.93E+02,9.93E+02,9.93E+02,9.93E+02,9.93E+02,9.93E+02,9.93E+02,9.93E+02,9.93E+02,9.93E+02,9.93E+02,9.93E+02,9.93E+02,9.93E+02,9.93E+02,9.93E+02,9.93E+02,9.93E+02,9.93E+02,9.93E+02,9.93E+02,9.93E+02,9.93E+02,9.93E+02,9.93E+02,9.93E+02,9.94E+02,9.94E+02,9.94E+02,9.94E+02,9.94E+02,9.94E+02
0.00E+00,0.00E+00,0.00E+00,0.00E+00,0.00E+00,0.00E+00,0.00E+00,0.00E+00,0.00E+00,0.00E+00,9.74E+02,9.76E+02,9.77E+02,9.78E+02,9.79E+02,9.79E+02,9.79E+02,9.79E+02,9.79E+02,9.79E+02,9.79E+02,9.79E+02,9.79E+02,9.79E+02,9.79E+02,9.79E+02,9.79E+02,9.79E+02,9.79E+02,9.79E+02,9.79E+02,9.79E+02,9.79E+02,9.79E+02,9.78E+02,9.78E+02,9.78E+02,9.78E+02,9.78E+02,9.78E+02,9.78E+02,9.78E+02,9.78E+02,9.78E+02,9.78E+02,9.78E+02,9.78E+02,9.78E+02,9.78E+02,9.78E+02,9.79E+02,9.79E+02,9.79E+02,9.79E+02,9.79E+02,9.79E+02,9.79E+02,9.79E+02,9.79E+02,9.79E+02,9.79E+02,9.79E+02,9.79E+02,9.79E+02,9.79E+02,9.79E+02,9.79E+02,9.79E+02,9.79E+02,9.79E+02,9.79E+02,9.79E+02,9.79E+02,9.79E+02,9.79E+02,9.79E+02,9.79E+02,9.79E+02,9.79E+02,9.80E+02,9.80E+02,9.80E+02,9.80E+02,9.80E+02,9.80E+02,9.80E+02,9.80E+02,9.80E+02,9.80E+02,9.80E+02,9.80E+02,9.80E+02,9.80E+02,9.80E+02,9.81E+02,9.81E+02,9.81E+02,9.81E+02,9.81E+02,9.81E+02,9.81E+02,9.81E+02,9.81E+02,9.81E+02,9.81E+02,9.81E+02,9.82E+02,9.82E+02,9.82E+02,9.82E+02,9.83E+02,9.83E+02,9.83E+02,9.83E+02,9.83E+02,9.84E+02,9.84E+02,9.84E+02,9.84E+02,9.84E+02,9.85E+02,9.85E+02,9.85E+02,9.85E+02,9.85E+02,9.86E+02,9.86E+02,9.86E+02,9.86E+02,9.86E+02,9.86E+02,9.87E+02,9.87E+02,9.87E+02,9.87E+02,9.87E+02,9.87E+02,9.87E+02,9.87E+02,9.87E+02,9.88E+02,9.88E+02,9.88E+02,9.88E+02,9.88E+02,9.88E+02,9.88E+02,9.88E+02,9.88E+02,9.88E+02,9.88E+02,9.88E+02,9.88E+02,9.88E+02,9.87E+02,9.87E+02,9.87E+02,9.87E+02,9.87E+02,9.87E+02,9.87E+02,9.87E+02,9.87E+02,9.87E+02,9.87E+02,9.87E+02,9.87E+02,9.87E+02,9.87E+02,9.87E+02,9.87E+02,9.87E+02,9.87E+02,9.87E+02,9.87E+02,9.87E+02,9.87E+02,9.87E+02,9.87E+02,9.88E+02,9.88E+02,9.88E+02,9.88E+02,9.88E+02,9.88E+02,9.88E+02,9.89E+02,9.89E+02,9.89E+02,9.89E+02,9.89E+02,9.90E+02,9.90E+02,9.90E+02,9.90E+02,9.90E+02,9.91E+02,9.91E+02,9.91E+02,9.91E+02,9.91E+02,9.92E+02,9.92E+02,9.92E+02,9.92E+02,9.92E+02,9.93E+02,9.93E+02,9.93E+02,9.93E+02,9.94E+02,9.94E+02,9.94E+02,9.94E+02,9.94E+02,9.95E+02,9.95E+02,9.95E+02,9.95E+02,9.95E+02,9.96E+02,9.96E+02,9.96E+02,9.96E+02,9.96E+02,9.97E+02,9.97E+02,9.97E+02,9.97E+02,9.97E+02,9.97E+02,9.97E+02,9.97E+02,9.97E+02,9.97E+02,9.97E+02,9.97E+02,9.97E+02,9.97E+02,9.97E+02,9.97E+02,9.97E+02,9.97E+02,9.97E+02,9.96E+02,9.96E+02,9.96E+02,9.96E+02,9.96E+02,9.95E+02,9.95E+02,9.95E+02,9.95E+02,9.95E+02,9.94E+02,9.94E+02,9.94E+02,9.94E+02,9.94E+02,9.93E+02,9.93E+02,9.93E+02,9.93E+02,9.93E+02,9.93E+02,9.93E+02,9.93E+02,9.92E+02,9.92E+02,9.92E+02,9.92E+02,9.92E+02,9.92E+02,9.92E+02,9.92E+02,9.92E+02,9.92E+02,9.92E+02,9.92E+02,9.92E+02,9.92E+02,9.92E+02,9.92E+02,9.92E+02,9.92E+02,9.93E+02,9.93E+02,9.93E+02,9.93E+02,9.93E+02,9.94E+02,9.94E+02,9.94E+02,9.94E+02,9.94E+02,9.94E+02,9.94E+02,9.94E+02,9.94E+02,9.93E+02,9.93E+02,9.93E+02,9.93E+02,9.93E+02,9.93E+02,9.93E+02,9.93E+02,9.93E+02,9.93E+02,9.93E+02,9.93E+02,9.93E+02,9.93E+02,9.93E+02,9.93E+02,9.93E+02,9.93E+02,9.93E+02,9.93E+02,9.93E+02,9.93E+02,9.93E+02,9.93E+02,9.93E+02,9.93E+02,9.93E+02,9.94E+02,9.94E+02,9.94E+02,9.94E+02,9.94E+02
0.00E+00,0.00E+00,0.00E+00,0.00E+00,0.00E+00,0.00E+00,0.00E+00,0.00E+00,0.00E+00,0.00E+00,9.75E+02,9.76E+02,9.77E+02,9.78E+02,9.79E+02,9.79E+02,9.79E+02,9.79E+02,9.79E+02,9.79E+02,9.79E+02,9.79E+02,9.79E+02,9.79E+02,9.79E+02,9.79E+02,9.79E+02,9.79E+02,9.79E+02,9.79E+02,9.79E+02,9.79E+02,9.79E+02,9.79E+02,9.79E+02,9.79E+02,9.79E+02,9.79E+02,9.79E+02,9.79E+02,9.79E+02,9.79E+02,9.79E+02,9.79E+02,9.79E+02,9.79E+02,9.79E+02,9.79E+02,9.79E+02,9.79E+02,9.79E+02,9.79E+02,9.79E+02,9.79E+02,9.79E+02,9.79E+02,9.79E+02,9.79E+02,9.79E+02,9.79E+02,9.79E+02,9.79E+02,9.79E+02,9.79E+02,9.79E+02,9.79E+02,9.79E+02,9.79E+02,9.79E+02,9.79E+02,9.79E+02,9.79E+02,9.79E+02,9.79E+02,9.79E+02,9.80E+02,9.80E+02,9.80E+02,9.80E+02,9.80E+02,9.80E+02,9.80E+02,9.80E+02,9.80E+02,9.80E+02,9.80E+02,9.80E+02,9.80E+02,9.80E+02,9.80E+02,9.80E+02,9.80E+02,9.81E+02,9.81E+02,9.81E+02,9.81E+02,9.81E+02,9.81E+02,9.81E+02,9.81E+02,9.81E+02,9.81E+02,9.81E+02,9.81E+02,9.81E+02,9.82E+02,9.82E+02,9.82E+02,9.82E+02,9.82E+02,9.83E+02,9.83E+02,9.83E+02,9.83E+02,9.83E+02,9.84E+02,9.84E+02,9.84E+02,9.84E+02,9.84E+02,9.85E+02,9.85E+02,9.85E+02,9.85E+02,9.85E+02,9.85E+02,9.86E+02,9.86E+02,9.86E+02,9.86E+02,9.86E+02,9.86E+02,9.86E+02,9.87E+02,9.87E+02,9.87E+02,9.87E+02,9.87E+02,9.87E+02,9.87E+02,9.87E+02,9.87E+02,9.87E+02,9.87E+02,9.87E+02,9.87E+02,9.87E+02,9.87E+02,9.87E+02,9.87E+02,9.87E+02,9.87E+02,9.87E+02,9.87E+02,9.87E+02,9.87E+02,9.87E+02,9.87E+02,9.87E+02,9.86E+02,9.86E+02,9.86E+02,9.86E+02,9.86E+02,9.86E+02,9.86E+02,9.86E+02,9.86E+02,9.86E+02,9.86E+02,9.87E+02,9.87E+02,9.87E+02,9.87E+02,9.87E+02,9.87E+02,9.87E+02,9.87E+02,9.87E+02,9.88E+02,9.88E+02,9.88E+02,9.88E+02,9.88E+02,9.88E+02,9.88E+02,9.89E+02,9.89E+02,9.89E+02,9.89E+02,9.89E+02,9.90E+02,9.90E+02,9.90E+02,9.90E+02,9.90E+02,9.91E+02,9.91E+02,9.91E+02,9.91E+02,9.91E+02,9.92E+02,9.92E+02,9.92E+02,9.92E+02,9.92E+02,9.93E+02,9.93E+02,9.93E+02,9.93E+02,9.93E+02,9.94E+02,9.94E+02,9.94E+02,9.94E+02,9.94E+02,9.95E+02,9.95E+02,9.95E+02,9.95E+02,9.96E+02,9.96E+02,9.96E+02,9.96E+02,9.96E+02,9.96E+02,9.97E+02,9.97E+02,9.97E+02,9.97E+02,9.97E+02,9.97E+02,9.97E+02,9.97E+02,9.97E+02,9.97E+02,9.97E+02,9.97E+02,9.97E+02,9.97E+02,9.97E+02,9.97E+02,9.97E+02,9.97E+02,9.97E+02,9.96E+02,9.96E+02,9.96E+02,9.96E+02,9.96E+02,9.95E+02,9.95E+02,9.95E+02,9.95E+02,9.95E+02,9.94E+02,9.94E+02,9.94E+02,9.94E+02,9.94E+02,9.94E+02,9.93E+02,9.93E+02,9.93E+02,9.93E+02,9.93E+02,9.93E+02,9.93E+02,9.93E+02,9.92E+02,9.92E+02,9.92E+02,9.92E+02,9.92E+02,9.92E+02,9.92E+02,9.92E+02,9.92E+02,9.92E+02,9.92E+02,9.92E+02,9.92E+02,9.92E+02,9.92E+02,9.93E+02,9.93E+02,9.93E+02,9.93E+02,9.93E+02,9.93E+02,9.94E+02,9.94E+02,9.94E+02,9.94E+02,9.94E+02,9.94E+02,9.94E+02,9.94E+02,9.94E+02,9.93E+02,9.93E+02,9.93E+02,9.93E+02,9.93E+02,9.93E+02,9.93E+02,9.93E+02,9.93E+02,9.93E+02,9.93E+02,9.93E+02,9.93E+02,9.93E+02,9.93E+02,9.93E+02,9.93E+02,9.93E+02,9.93E+02,9.93E+02,9.93E+02,9.93E+02,9.93E+02,9.93E+02,9.93E+02,9.93E+02,9.93E+02,9.93E+02,9.94E+02,9.94E+02,9.94E+02,9.94E+02
0.00E+00,0.00E+00,0.00E+00,0.00E+00,0.00E+00,0.00E+00,0.00E+00,0.00E+00,0.00E+00,0.00E+00,9.75E+02,9.76E+02,9.77E+02,9.78E+02,9.79E+02,9.79E+02,9.79E+02,9.79E+02,9.79E+02,9.79E+02,9.79E+02,9.79E+02,9.79E+02,9.79E+02,9.79E+02,9.79E+02,9.79E+02,9.79E+02,9.79E+02,9.79E+02,9.79E+02,9.79E+02,9.79E+02,9.79E+02,9.79E+02,9.79E+02,9.79E+02,9.79E+02,9.79E+02,9.79E+02,9.79E+02,9.79E+02,9.79E+02,9.79E+02,9.79E+02,9.79E+02,9.79E+02,9.79E+02,9.79E+02,9.79E+02,9.79E+02,9.79E+02,9.79E+02,9.79E+02,9.79E+02,9.79E+02,9.79E+02,9.79E+02,9.79E+02,9.79E+02,9.79E+02,9.79E+02,9.79E+02,9.79E+02,9.79E+02,9.79E+02,9.79E+02,9.79E+02,9.79E+02,9.79E+02,9.79E+02,9.79E+02,9.80E+02,9.80E+02,9.80E+02,9.80E+02,9.80E+02,9.80E+02,9.80E+02,9.80E+02,9.80E+02,9.80E+02,9.80E+02,9.80E+02,9.80E+02,9.80E+02,9.80E+02,9.80E+02,9.80E+02,9.80E+02,9.81E+02,9.81E+02,9.81E+02,9.81E+02,9.81E+02,9.81E+02,9.81E+02,9.81E+02,9.81E+02,9.81E+02,9.81E+02,9.81E+02,9.81E+02,9.81E+02,9.81E+02,9.82E+02,9.82E+02,9.82E+02,9.82E+02,9.82E+02,9.83E+02,9.83E+02,9.83E+02,9.83E+02,9.83E+02,9.84E+02,9.84E+02,9.84E+02,9.84E+02,9.84E+02,9.84E+02,9.85E+02,9.85E+02,9.85E+02,9.85E+02,9.85E+02,9.85E+02,9.86E+02,9.86E+02,9.86E+02,9.86E+02,9.86E+02,9.86E+02,9.86E+02,9.86E+02,9.87E+02,9.87E+02,9.87E+02,9.87E+02,9.87E+02,9.87E+02,9.87E+02,9.87E+02,9.87E+02,9.87E+02,9.87E+02,9.87E+02,9.87E+02,9.87E+02,9.87E+02,9.87E+02,9.87E+02,9.87E+02,9.87E+02,9.87E+02,9.87E+02,9.86E+02,9.86E+02,9.86E+02,9.86E+02,9.86E+02,9.86E+02,9.86E+02,9.86E+02,9.86E+02,9.86E+02,9.86E+02,9.86E+02,9.86E+02,9.86E+02,9.86E+02,9.87E+02,9.87E+02,9.87E+02,9.87E+02,9.87E+02,9.87E+02,9.87E+02,9.87E+02,9.87E+02,9.88E+02,9.88E+02,9.88E+02,9.88E+02,9.88E+02,9.88E+02,9.89E+02,9.89E+02,9.89E+02,9.89E+02,9.89E+02,9.90E+02,9.90E+02,9.90E+02,9.90E+02,9.90E+02,9.91E+02,9.91E+02,9.91E+02,9.91E+02,9.91E+02,9.92E+02,9.92E+02,9.92E+02,9.92E+02,9.92E+02,9.93E+02,9.93E+02,9.93E+02,9.93E+02,9.93E+02,9.94E+02,9.94E+02,9.94E+02,9.94E+02,9.94E+02,9.95E+02,9.95E+02,9.95E+02,9.95E+02,9.95E+02,9.96E+02,9.96E+02,9.96E+02,9.96E+02,9.96E+02,9.96E+02,9.97E+02,9.97E+02,9.97E+02,9.97E+02,9.97E+02,9.97E+02,9.97E+02,9.97E+02,9.97E+02,9.97E+02,9.97E+02,9.97E+02,9.97E+02,9.97E+02,9.97E+02,9.97E+02,9.97E+02,9.97E+02,9.96E+02,9.96E+02,9.96E+02,9.96E+02,9.96E+02,9.95E+02,9.95E+02,9.95E+02,9.95E+02,9.95E+02,9.95E+02,9.94E+02,9.94E+02,9.94E+02,9.94E+02,9.94E+02,9.94E+02,9.93E+02,9.93E+02,9.93E+02,9.93E+02,9.93E+02,9.93E+02,9.93E+02,9.93E+02,9.93E+02,9.92E+02,9.92E+02,9.92E+02,9.92E+02,9.92E+02,9.92E+02,9.92E+02,9.92E+02,9.92E+02,9.92E+02,9.92E+02,9.92E+02,9.93E+02,9.93E+02,9.93E+02,9.93E+02,9.93E+02,9.93E+02,9.93E+02,9.94E+02,9.94E+02,9.94E+02,9.94E+02,9.94E+02,9.94E+02,9.94E+02,9.94E+02,9.93E+02,9.93E+02,9.93E+02,9.93E+02,9.93E+02,9.93E+02,9.93E+02,9.93E+02,9.93E+02,9.93E+02,9.93E+02,9.93E+02,9.93E+02,9.93E+02,9.93E+02,9.93E+02,9.93E+02,9.93E+02,9.93E+02,9.93E+02,9.93E+02,9.93E+02,9.93E+02,9.93E+02,9.93E+02,9.93E+02,9.93E+02,9.93E+02,9.93E+02,9.93E+02,9.94E+02,9.94E+02,9.94E+02
0.00E+00,0.00E+00,0.00E+00,0.00E+00,0.00E+00,0.00E+00,0.00E+00,0.00E+00,0.00E+00,0.00E+00,9.75E+02,9.76E+02,9.77E+02,9.79E+02,9.79E+02,9.79E+02,9.79E+02,9.79E+02,9.79E+02,9.79E+02,9.79E+02,9.79E+02,9.79E+02,9.79E+02,9.79E+02,9.79E+02,9.79E+02,9.79E+02,9.79E+02,9.79E+02,9.79E+02,9.79E+02,9.79E+02,9.79E+02,9.79E+02,9.79E+02,9.79E+02,9.79E+02,9.79E+02,9.79E+02,9.79E+02,9.79E+02,9.79E+02,9.79E+02,9.79E+02,9.79E+02,9.79E+02,9.79E+02,9.79E+02,9.79E+02,9.79E+02,9.79E+02,9.79E+02,9.79E+02,9.79E+02,9.79E+02,9.79E+02,9.79E+02,9.79E+02,9.79E+02,9.79E+02,9.79E+02,9.79E+02,9.79E+02,9.79E+02,9.79E+02,9.79E+02,9.79E+02,9.80E+02,9.80E+02,9.80E+02,9.80E+02,9.80E+02,9.80E+02,9.80E+02,9.80E+02,9.80E+02,9.80E+02,9.80E+02,9.80E+02,9.80E+02,9.80E+02,9.80E+02,9.80E+02,9.80E+02,9.80E+02,9.80E+02,9.80E+02,9.81E+02,9.81E+02,9.81E+02,9.81E+02,9.81E+02,9.81E+02,9.81E+02,9.81E+02,9.81E+02,9.81E+02,9.81E+02,9.81E+02,9.81E+02,9.81E+02,9.81E+02,9.82E+02,9.82E+02,9.82E+02,9.82E+02,9.82E+02,9.82E+02,9.82E+02,9.83E+02,9.83E+02,9.83E+02,9.83E+02,9.83E+02,9.83E+02,9.84E+02,9.84E+02,9.84E+02,9.84E+02,9.84E+02,9.84E+02,9.85E+02,9.85E+02,9.85E+02,9.85E+02,9.85E+02,9.85E+02,9.85E+02,9.86E+02,9.86E+02,9.86E+02,9.86E+02,9.86E+02,9.86E+02,9.86E+02,9.86E+02,9.86E+02,9.86E+02,9.86E+02,9.87E+02,9.87E+02,9.87E+02,9.87E+02,9.87E+02,9.87E+02,9.87E+02,9.87E+02,9.86E+02,9.86E+02,9.86E+02,9.86E+02,9.86E+02,9.86E+02,9.86E+02,9.86E+02,9.86E+02,9.86E+02,9.86E+02,9.86E+02,9.86E+02,9.86E+02,9.86E+02,9.86E+02,9.86E+02,9.86E+02,9.86E+02,9.86E+02,9.86E+02,9.86E+02,9.86E+02,9.86E+02,9.86E+02,9.87E+02,9.87E+02,9.87E+02,9.87E+02,9.87E+02,9.87E+02,9.87E+02,9.88E+02,9.88E+02,9.88E+02,9.88E+02,9.88E+02,9.88E+02,9.89E+02,9.89E+02,9.89E+02,9.89E+02,9.89E+02,9.90E+02,9.90E+02,9.90E+02,9.90E+02,9.90E+02,9.91E+02,9.91E+02,9.91E+02,9.91E+02,9.91E+02,9.92E+02,9.92E+02,9.92E+02,9.92E+02,9.92E+02,9.93E+02,9.93E+02,9.93E+02,9.93E+02,9.93E+02,9.94E+02,9.94E+02,9.94E+02,9.94E+02,9.94E+02,9.95E+02,9.95E+02,9.95E+02,9.95E+02,9.95E+02,9.96E+02,9.96E+02,9.96E+02,9.96E+02,9.96E+02,9.96E+02,9.96E+02,9.97E+02,9.97E+02,9.97E+02,9.97E+02,9.97E+02,9.97E+02,9.97E+02,9.97E+02,9.97E+02,9.97E+02,9.97E+02,9.97E+02,9.97E+02,9.97E+02,9.97E+02,9.97E+02,9.97E+02,9.96E+02,9.96E+02,9.96E+02,9.96E+02,9.96E+02,9.96E+02,9.95E+02,9.95E+02,9.95E+02,9.95E+02,9.95E+02,9.95E+02,9.94E+02,9.94E+02,9.94E+02,9.94E+02,9.94E+02,9.94E+02,9.94E+02,9.93E+02,9.93E+02,9.93E+02,9.93E+02,9.93E+02,9.93E+02,9.93E+02,9.93E+02,9.93E+02,9.93E+02,9.93E+02,9.93E+02,9.92E+02,9.92E+02,9.92E+02,9.93E+02,9.93E+02,9.93E+02,9.93E+02,9.93E+02,9.93E+02,9.93E+02,9.93E+02,9.93E+02,9.93E+02,9.93E+02,9.94E+02,9.94E+02,9.94E+02,9.94E+02,9.94E+02,9.94E+02,9.94E+02,9.93E+02,9.93E+02,9.93E+02,9.93E+02,9.93E+02,9.93E+02,9.93E+02,9.93E+02,9.93E+02,9.93E+02,9.93E+02,9.93E+02,9.93E+02,9.93E+02,9.93E+02,9.93E+02,9.93E+02,9.93E+02,9.93E+02,9.93E+02,9.93E+02,9.93E+02,9.93E+02,9.93E+02,9.93E+02,9.93E+02,9.93E+02,9.93E+02,9.93E+02,9.93E+02,9.93E+02,9.93E+02,9.94E+02,9.94E+02
