1.013347229003906250e+03 1.012934143066406250e+03 1.012522094726562500e+03 1.012111206054687500e+03 1.011701538085937500e+03 1.011293029785156250e+03 1.010885864257812500e+03 1.010480041503906250e+03 1.010075561523437500e+03 1.009672485351562500e+03 1.009270935058593750e+03 1.008870971679687500e+03 1.008472595214843750e+03 1.008075866699218750e+03 1.007680969238281250e+03 1.007287841796875000e+03 1.006896606445312500e+03 1.006507446289062500e+03 1.006120300292968750e+03 1.005735351562500000e+03 1.005352661132812500e+03 1.004972351074218750e+03 1.004594543457031250e+03 1.004219360351562500e+03 1.003846862792968750e+03 1.003477294921875000e+03 1.003110717773437500e+03 1.002747314453125000e+03 1.002387268066406250e+03 1.002030761718750000e+03 1.001677917480468750e+03 1.001329040527343750e+03 1.000984252929687500e+03 1.000643798828125000e+03 1.000308044433593750e+03 9.999771118164062500e+02 9.996514282226562500e+02 9.993312988281250000e+02 9.990169067382812500e+02 9.987086181640625000e+02 9.984068603515625000e+02 9.981119384765625000e+02 9.978243408203125000e+02 9.975444946289062500e+02 9.972730102539062500e+02 9.970104370117187500e+02 9.967575073242187500e+02 9.965150756835937500e+02 9.962839355468750000e+02 9.960652465820312500e+02 9.958601074218750000e+02 9.956699218750000000e+02 9.954963378906250000e+02 9.953411865234375000e+02 9.952066650390625000e+02 9.950952758789062500e+02 9.950098876953125000e+02 9.949536132812500000e+02 9.949296875000000000e+02 9.949403686523437500e+02 9.949837036132812500e+02 9.950610961914062500e+02 9.951851806640625000e+02 9.953632202148437500e+02 9.956051635742187500e+02 9.959288940429687500e+02 9.963989257812500000e+02 9.962963256835937500e+02 9.954480590820312500e+02 9.945998535156250000e+02 9.937515869140625000e+02 9.929069824218750000e+02 9.925491333007812500e+02 9.928311157226562500e+02 9.935813598632812500e+02 9.945242919921875000e+02 9.947541503906250000e+02 9.946664428710937500e+02 9.944501342773437500e+02 9.941680297851562500e+02 9.938469238281250000e+02 9.935002441406250000e+02 0.000000000000000000e+00 0.000000000000000000e+00 0.000000000000000000e+00 0.000000000000000000e+00 0.000000000000000000e+00 0.000000000000000000e+00 0.000000000000000000e+00 0.000000000000000000e+00 0.000000000000000000e+00 0.000000000000000000e+00 0.000000000000000000e+00 0.000000000000000000e+00 0.000000000000000000e+00 0.000000000000000000e+00 0.000000000000000000e+00 0.000000000000000000e+00 0.000000000000000000e+00 0.000000000000000000e+00 0.000000000000000000e+00 0.000000000000000000e+00 0.000000000000000000e+00 0.000000000000000000e+00 0.000000000000000000e+00 0.000000000000000000e+00 0.000000000000000000e+00 0.000000000000000000e+00 0.000000000000000000e+00 0.000000000000000000e+00 0.000000000000000000e+00 0.000000000000000000e+00 0.000000000000000000e+00 0.000000000000000000e+00 0.000000000000000000e+00 0.000000000000000000e+00 0.000000000000000000e+00 0.000000000000000000e+00 0.000000000000000000e+00
1.012283447265625000e+03 1.011875488281250000e+03 1.011468688964843750e+03 1.011063171386718750e+03 1.010658996582031250e+03 1.010256225585937500e+03 1.009854858398437500e+03 1.009455017089843750e+03 1.009056762695312500e+03 1.008660095214843750e+03 1.008265075683593750e+03 1.007871826171875000e+03 1.007480407714843750e+03 1.007090881347656250e+03 1.006703369140625000e+03 1.006317871093750000e+03 1.005934570312500000e+03 1.005553466796875000e+03 1.005174743652343750e+03 1.004798522949218750e+03 1.004424865722656250e+03 1.004053833007812500e+03 1.003685729980468750e+03 1.003320495605468750e+03 1.002958435058593750e+03 1.002599609375000000e+03 1.002244262695312500e+03 1.001892517089843750e+03 1.001544555664062500e+03 1.001200622558593750e+03 1.000860900878906250e+03 1.000525634765625000e+03 1.000195129394531250e+03 9.998696899414062500e+02 9.995496215820312500e+02 9.992351684570312500e+02 9.989265136718750000e+02 9.986240234375000000e+02 9.983279418945312500e+02 9.980386962890625000e+02 9.977565307617187500e+02 9.974819335937500000e+02 9.972154541015625000e+02 9.969574584960937500e+02 9.967086791992187500e+02 9.964697265625000000e+02 9.962413940429687500e+02 9.960245361328125000e+02 9.958201293945312500e+02 9.956293945312500000e+02 9.954536132812500000e+02 9.952943725585937500e+02 9.951534423828125000e+02 9.950330810546875000e+02 9.949357910156250000e+02 9.948646240234375000e+02 9.948232421875000000e+02 9.948161010742187500e+02 9.948486938476562500e+02 9.949275512695312500e+02 9.950608520507812500e+02 9.952579345703125000e+02 9.955281372070312500e+02 9.958704223632812500e+02 9.962439575195312500e+02 9.967073974609375000e+02 9.973060913085937500e+02 9.966473999023437500e+02 9.957991333007812500e+02 9.949508666992187500e+02 9.941026611328125000e+02 9.932543945312500000e+02 9.926098632812500000e+02 9.926052856445312500e+02 9.931071166992187500e+02 9.940084228515625000e+02 9.949304199218750000e+02 9.951444091796875000e+02 9.950731201171875000e+02 9.948747558593750000e+02 9.946077880859375000e+02 9.942990112304687500e+02 9.939620971679687500e+02 9.936050415039062500e+02 0.000000000000000000e+00 0.000000000000000000e+00 0.000000000000000000e+00 0.000000000000000000e+00 0.000000000000000000e+00 0.000000000000000000e+00 0.000000000000000000e+00 0.000000000000000000e+00 0.000000000000000000e+00 0.000000000000000000e+00 0.000000000000000000e+00 0.000000000000000000e+00 0.000000000000000000e+00 0.000000000000000000e+00 0.000000000000000000e+00 0.000000000000000000e+00 0.000000000000000000e+00 0.000000000000000000e+00 0.000000000000000000e+00 0.000000000000000000e+00 0.000000000000000000e+00 0.000000000000000000e+00 0.000000000000000000e+00 0.000000000000000000e+00 0.000000000000000000e+00 0.000000000000000000e+00 0.000000000000000000e+00 0.000000000000000000e+00 0.000000000000000000e+00 0.000000000000000000e+00 0.000000000000000000e+00 0.000000000000000000e+00 0.000000000000000000e+00 0.000000000000000000e+00 0.000000000000000000e+00
1.011213195800781250e+03 1.010810791015625000e+03 1.010409301757812500e+03 1.010009155273437500e+03 1.009610534667968750e+03 1.009213439941406250e+03 1.008817993164062500e+03 1.008424133300781250e+03 1.008032043457031250e+03 1.007641784667968750e+03 1.007253417968750000e+03 1.006866943359375000e+03 1.006482543945312500e+03 1.006100280761718750e+03 1.005720214843750000e+03 1.005342468261718750e+03 1.004967163085937500e+03 1.004594360351562500e+03 1.004224182128906250e+03 1.003856750488281250e+03 1.003492248535156250e+03 1.003130737304687500e+03 1.002772460937500000e+03 1.002417480468750000e+03 1.002066040039062500e+03 1.001718261718750000e+03 1.001374328613281250e+03 1.001034484863281250e+03 1.000698974609375000e+03 1.000367980957031250e+03 1.000041870117187500e+03 9.997210693359375000e+02 9.994057617187500000e+02 9.990960693359375000e+02 9.987922973632812500e+02 9.984946289062500000e+02 9.982033691406250000e+02 9.979187622070312500e+02 9.976411743164062500e+02 9.973709106445312500e+02 9.971083984375000000e+02 9.968540039062500000e+02 9.966083374023437500e+02 9.963718872070312500e+02 9.961453247070312500e+02 9.959293212890625000e+02 9.957246704101562500e+02 9.955322875976562500e+02 9.953532714843750000e+02 9.951888427734375000e+02 9.950403442382812500e+02 9.949094848632812500e+02 9.947981567382812500e+02 9.947085571289062500e+02 9.946434936523437500e+02 9.946060791015625000e+02 9.946002197265625000e+02 9.946306152343750000e+02 9.947031250000000000e+02 9.948248291015625000e+02 9.950049438476562500e+02 9.952549438476562500e+02 9.955899047851562500e+02 9.960296630859375000e+02 9.966007690429687500e+02 9.973380126953125000e+02 9.978456420898437500e+02 9.969984130859375000e+02 9.961502075195312500e+02 9.953019409179687500e+02 9.944537353515625000e+02 9.936054687500000000e+02 9.927959594726562500e+02 9.924965209960937500e+02 9.927376708984375000e+02 9.934133911132812500e+02 9.944466552734375000e+02 9.953281250000000000e+02 9.955371093750000000e+02 9.954818115234375000e+02 9.953001708984375000e+02 9.950474853515625000e+02 9.947503051757812500e+02 9.944227905273437500e+02 9.940733032226562500e+02 9.937070312500000000e+02 0.000000000000000000e+00 0.000000000000000000e+00 0.000000000000000000e+00 0.000000000000000000e+00 0.000000000000000000e+00 0.000000000000000000e+00 0.000000000000000000e+00 0.000000000000000000e+00 0.000000000000000000e+00 0.000000000000000000e+00 0.000000000000000000e+00 0.000000000000000000e+00 0.000000000000000000e+00 0.000000000000000000e+00 0.000000000000000000e+00 0.000000000000000000e+00 0.000000000000000000e+00 0.000000000000000000e+00 0.000000000000000000e+00 0.000000000000000000e+00 0.000000000000000000e+00 0.000000000000000000e+00 0.000000000000000000e+00 0.000000000000000000e+00 0.000000000000000000e+00 0.000000000000000000e+00 0.000000000000000000e+00 0.000000000000000000e+00 0.000000000000000000e+00 0.000000000000000000e+00 0.000000000000000000e+00 0.000000000000000000e+00 0.000000000000000000e+00
1.010135559082031250e+03 1.009739257812500000e+03 1.009343688964843750e+03 1.008948974609375000e+03 1.008555847167968750e+03 1.008164489746093750e+03 1.007774841308593750e+03 1.007387084960937500e+03 1.007001281738281250e+03 1.006617431640625000e+03 1.006235656738281250e+03 1.005856079101562500e+03 1.005478759765625000e+03 1.005103820800781250e+03 1.004731323242187500e+03 1.004361389160156250e+03 1.003994140625000000e+03 1.003629699707031250e+03 1.003268249511718750e+03 1.002909851074218750e+03 1.002554626464843750e+03 1.002202819824218750e+03 1.001854553222656250e+03 1.001510009765625000e+03 1.001169433593750000e+03 1.000832885742187500e+03 1.000500732421875000e+03 1.000173156738281250e+03 9.998507080078125000e+02 9.995337524414062500e+02 9.992224121093750000e+02 9.989168090820312500e+02 9.986171875000000000e+02 9.983236694335937500e+02 9.980364990234375000e+02 9.977559204101562500e+02 9.974821777343750000e+02 9.972155761718750000e+02 9.969564819335937500e+02 9.967054443359375000e+02 9.964630126953125000e+02 9.962294311523437500e+02 9.960051879882812500e+02 9.957907104492187500e+02 9.955866088867187500e+02 9.953935546875000000e+02 9.952122802734375000e+02 9.950437011718750000e+02 9.948889160156250000e+02 9.947490844726562500e+02 9.946256713867187500e+02 9.945203247070312500e+02 9.944349365234375000e+02 9.943718872070312500e+02 9.943338623046875000e+02 9.943241577148437500e+02 9.943465576171875000e+02 9.944058227539062500e+02 9.945077514648437500e+02 9.946591796875000000e+02 9.948681030273437500e+02 9.951448974609375000e+02 9.955025024414062500e+02 9.959564208984375000e+02 9.965239257812500000e+02 9.971702880859375000e+02 9.972434692382812500e+02 9.969959716796875000e+02 9.964774169921875000e+02 9.956530151367187500e+02 9.948048095703125000e+02 9.939565429687500000e+02 9.931083374023437500e+02 9.925129394531250000e+02 9.924779052734375000e+02 9.929119262695312500e+02 9.937372436523437500e+02 9.948922119140625000e+02 9.957224731445312500e+02 9.959333496093750000e+02 9.958937988281250000e+02 9.957279052734375000e+02 9.954887084960937500e+02 9.952025146484375000e+02 9.948839111328125000e+02 9.945416259765625000e+02 9.941812133789062500e+02 0.000000000000000000e+00 0.000000000000000000e+00 0.000000000000000000e+00 0.000000000000000000e+00 0.000000000000000000e+00 0.000000000000000000e+00 0.000000000000000000e+00 0.000000000000000000e+00 0.000000000000000000e+00 0.000000000000000000e+00 0.000000000000000000e+00 0.000000000000000000e+00 0.000000000000000000e+00 0.000000000000000000e+00 0.000000000000000000e+00 0.000000000000000000e+00 0.000000000000000000e+00 0.000000000000000000e+00 0.000000000000000000e+00 0.000000000000000000e+00 0.000000000000000000e+00 0.000000000000000000e+00 0.000000000000000000e+00 0.000000000000000000e+00 0.000000000000000000e+00 0.000000000000000000e+00 0.000000000000000000e+00 0.000000000000000000e+00 0.000000000000000000e+00 0.000000000000000000e+00 0.000000000000000000e+00 0.000000000000000000e+00
1.009049926757812500e+03 1.008660156250000000e+03 1.008270996093750000e+03 1.007882263183593750e+03 1.007494689941406250e+03 1.007109008789062500e+03 1.006725280761718750e+03 1.006343566894531250e+03 1.005963989257812500e+03 1.005586669921875000e+03 1.005211608886718750e+03 1.004838928222656250e+03 1.004468750000000000e+03 1.004101196289062500e+03 1.003736328125000000e+03 1.003374328613281250e+03 1.003015319824218750e+03 1.002659362792968750e+03 1.002306701660156250e+03 1.001957458496093750e+03 1.001611755371093750e+03 1.001269775390625000e+03 1.000931823730468750e+03 1.000597900390625000e+03 1.000268371582031250e+03 9.999434814453125000e+02 9.996239013671875000e+02 9.993099975585937500e+02 9.990018920898437500e+02 9.986997070312500000e+02 9.984035034179687500e+02 9.981135253906250000e+02 9.978298950195312500e+02 9.975527954101562500e+02 9.972825317382812500e+02 9.970200195312500000e+02 9.967655639648437500e+02 9.965191650390625000e+02 9.962810058593750000e+02 9.960512695312500000e+02 9.958303222656250000e+02 9.956184082031250000e+02 9.954160156250000000e+02 9.952235717773437500e+02 9.950417480468750000e+02 9.948710937500000000e+02 9.947125244140625000e+02 9.945668334960937500e+02 9.944350585937500000e+02 9.943184814453125000e+02 9.942185058593750000e+02 9.941366577148437500e+02 9.940749511718750000e+02 9.940354614257812500e+02 9.940209350585937500e+02 9.940343017578125000e+02 9.940792846679687500e+02 9.941602783203125000e+02 9.942824707031250000e+02 9.944521484375000000e+02 9.946769409179687500e+02 9.949661254882812500e+02 9.953302612304687500e+02 9.957804565429687500e+02 9.963107910156250000e+02 9.965958862304687500e+02 9.965861816406250000e+02 9.964392089843750000e+02 9.961723632812500000e+02 9.957582397460937500e+02 9.951387329101562500e+02 9.943076171875000000e+02 9.934593505859375000e+02 9.926662597656250000e+02 9.923403320312500000e+02 9.925120849609375000e+02 9.931105346679687500e+02 9.940718383789062500e+02 9.953397827148437500e+02 9.961168823242187500e+02 9.963344116210937500e+02 9.963104248046875000e+02 9.961594848632812500e+02 9.959329223632812500e+02 9.956570434570312500e+02 9.953468627929687500e+02 9.950113525390625000e+02 9.946564331054687500e+02 9.942860107421875000e+02 0.000000000000000000e+00 0.000000000000000000e+00 0.000000000000000000e+00 0.000000000000000000e+00 0.000000000000000000e+00 0.000000000000000000e+00 0.000000000000000000e+00 0.000000000000000000e+00 0.000000000000000000e+00 0.000000000000000000e+00 0.000000000000000000e+00 0.000000000000000000e+00 0.000000000000000000e+00 0.000000000000000000e+00 0.000000000000000000e+00 0.000000000000000000e+00 0.000000000000000000e+00 0.000000000000000000e+00 0.000000000000000000e+00 0.000000000000000000e+00 0.000000000000000000e+00 0.000000000000000000e+00 0.000000000000000000e+00 0.000000000000000000e+00 0.000000000000000000e+00 0.000000000000000000e+00 0.000000000000000000e+00 0.000000000000000000e+00 0.000000000000000000e+00 0.000000000000000000e+00
1.007955688476562500e+03 1.007572937011718750e+03 1.007190490722656250e+03 1.006808410644531250e+03 1.006426696777343750e+03 1.006046691894531250e+03 1.005668884277343750e+03 1.005293273925781250e+03 1.004920043945312500e+03 1.004549194335937500e+03 1.004180847167968750e+03 1.003815185546875000e+03 1.003452209472656250e+03 1.003092102050781250e+03 1.002735046386718750e+03 1.002381042480468750e+03 1.002030334472656250e+03 1.001683044433593750e+03 1.001339355468750000e+03 1.000999389648437500e+03 1.000663330078125000e+03 1.000331481933593750e+03 1.000003906250000000e+03 9.996809692382812500e+02 9.993634033203125000e+02 9.990517578125000000e+02 9.987461547851562500e+02 9.984466552734375000e+02 9.981533203125000000e+02 9.978663330078125000e+02 9.975856933593750000e+02 9.973119506835937500e+02 9.970463256835937500e+02 9.967888793945312500e+02 9.965394897460937500e+02 9.962981567382812500e+02 9.960648803710937500e+02 9.958397827148437500e+02 9.956229248046875000e+02 9.954146118164062500e+02 9.952150878906250000e+02 9.950247192382812500e+02 9.948438720703125000e+02 9.946730957031250000e+02 9.945130004882812500e+02 9.943641357421875000e+02 9.942274169921875000e+02 9.941035766601562500e+02 9.939937744140625000e+02 9.938991699218750000e+02 9.938210449218750000e+02 9.937610473632812500e+02 9.937208862304687500e+02 9.937027587890625000e+02 9.937090454101562500e+02 9.937426757812500000e+02 9.938068847656250000e+02 9.939057617187500000e+02 9.940438232421875000e+02 9.942265625000000000e+02 9.944603881835937500e+02 9.947524414062500000e+02 9.951098022460937500e+02 9.955341796875000000e+02 9.959166259765625000e+02 9.959295654296875000e+02 9.959265136718750000e+02 9.958289794921875000e+02 9.956506958007812500e+02 9.953885498046875000e+02 9.950198364257812500e+02 9.945085449218750000e+02 9.938078002929687500e+02 9.929622192382812500e+02 9.923428955078125000e+02 9.922296752929687500e+02 9.925766601562500000e+02 9.933234252929687500e+02 9.944131469726562500e+02 9.957690429687500000e+02 9.965140991210937500e+02 9.967416992187500000e+02 9.967331542968750000e+02 9.965963745117187500e+02 9.963816528320312500e+02 9.961154174804687500e+02 9.958129882812500000e+02 9.954838256835937500e+02 9.951339721679687500e+02 9.947676391601562500e+02 9.943876953125000000e+02 0.000000000000000000e+00 0.000000000000000000e+00 0.000000000000000000e+00 0.000000000000000000e+00 0.000000000000000000e+00 0.000000000000000000e+00 0.000000000000000000e+00 0.000000000000000000e+00 0.000000000000000000e+00 0.000000000000000000e+00 0.000000000000000000e+00 0.000000000000000000e+00 0.000000000000000000e+00 0.000000000000000000e+00 0.000000000000000000e+00 0.000000000000000000e+00 0.000000000000000000e+00 0.000000000000000000e+00 0.000000000000000000e+00 0.000000000000000000e+00 0.000000000000000000e+00 0.000000000000000000e+00 0.000000000000000000e+00 0.000000000000000000e+00 0.000000000000000000e+00 0.000000000000000000e+00 0.000000000000000000e+00 0.000000000000000000e+00
1.006852416992187500e+03 1.006477050781250000e+03 1.006101745605468750e+03 1.005726623535156250e+03 1.005351623535156250e+03 1.004977355957031250e+03 1.004605468750000000e+03 1.004235961914062500e+03 1.003869018554687500e+03 1.003504760742187500e+03 1.003143188476562500e+03 1.002784545898437500e+03 1.002428894042968750e+03 1.002076354980468750e+03 1.001727050781250000e+03 1.001381225585937500e+03 1.001038940429687500e+03 1.000700439453125000e+03 1.000365844726562500e+03 1.000035339355468750e+03 9.997092285156250000e+02 9.993875732421875000e+02 9.990711059570312500e+02 9.987609252929687500e+02 9.984570312500000000e+02 9.981595458984375000e+02 9.978684082031250000e+02 9.975838012695312500e+02 9.973057861328125000e+02 9.970361328125000000e+02 9.967753295898437500e+02 9.965231323242187500e+02 9.962792358398437500e+02 9.960433959960937500e+02 9.958156127929687500e+02 9.955957641601562500e+02 9.953839111328125000e+02 9.951801147460937500e+02 9.949846191406250000e+02 9.947976074218750000e+02 9.946193237304687500e+02 9.944501342773437500e+02 9.942905273437500000e+02 9.941409301757812500e+02 9.940018920898437500e+02 9.938741455078125000e+02 9.937584228515625000e+02 9.936556396484375000e+02 9.935666503906250000e+02 9.934927368164062500e+02 9.934351196289062500e+02 9.933953857421875000e+02 9.933751220703125000e+02 9.933763427734375000e+02 9.934013061523437500e+02 9.934526367187500000e+02 9.935333862304687500e+02 9.936470336914062500e+02 9.937975463867187500e+02 9.939895019531250000e+02 9.942277832031250000e+02 9.945167846679687500e+02 9.948572387695312500e+02 9.952061767578125000e+02 9.952987670898437500e+02 9.952914428710937500e+02 9.952814331054687500e+02 9.952073974609375000e+02 9.950752563476562500e+02 9.948912353515625000e+02 9.946400146484375000e+02 9.943023071289062500e+02 9.938504028320312500e+02 9.932488403320312500e+02 9.925031738281250000e+02 9.920881347656250000e+02 9.921542968750000000e+02 9.926585693359375000e+02 9.935445556640625000e+02 9.947586669921875000e+02 9.961851806640625000e+02 9.969165039062500000e+02 9.971567993164062500e+02 9.971634521484375000e+02 9.970400390625000000e+02 9.968363647460937500e+02 9.965790405273437500e+02 9.962838134765625000e+02 9.959603881835937500e+02 9.956151733398437500e+02 9.952525024414062500e+02 9.948754272460937500e+02 9.944862670898437500e+02 0.000000000000000000e+00 0.000000000000000000e+00 0.000000000000000000e+00 0.000000000000000000e+00 0.000000000000000000e+00 0.000000000000000000e+00 0.000000000000000000e+00 0.000000000000000000e+00 0.000000000000000000e+00 0.000000000000000000e+00 0.000000000000000000e+00 0.000000000000000000e+00 0.000000000000000000e+00 0.000000000000000000e+00 0.000000000000000000e+00 0.000000000000000000e+00 0.000000000000000000e+00 0.000000000000000000e+00 0.000000000000000000e+00 0.000000000000000000e+00 0.000000000000000000e+00 0.000000000000000000e+00 0.000000000000000000e+00 0.000000000000000000e+00 0.000000000000000000e+00 0.000000000000000000e+00
1.005739746093750000e+03 1.005372131347656250e+03 1.005004455566406250e+03 1.004636535644531250e+03 1.004268615722656250e+03 1.003900634765625000e+03 1.003534667968750000e+03 1.003171325683593750e+03 1.002810729980468750e+03 1.002453063964843750e+03 1.002098327636718750e+03 1.001746765136718750e+03 1.001398437500000000e+03 1.001053527832031250e+03 1.000712219238281250e+03 1.000374633789062500e+03 1.000040893554687500e+03 9.997113037109375000e+02 9.993859863281250000e+02 9.990651855468750000e+02 9.987491455078125000e+02 9.984393310546875000e+02 9.981362915039062500e+02 9.978399658203125000e+02 9.975503540039062500e+02 9.972675170898437500e+02 9.969918212890625000e+02 9.967260131835937500e+02 9.964699707031250000e+02 9.962230834960937500e+02 9.959848632812500000e+02 9.957550048828125000e+02 9.955332031250000000e+02 9.953193359375000000e+02 9.951132812500000000e+02 9.949150390625000000e+02 9.947246093750000000e+02 9.945421752929687500e+02 9.943678588867187500e+02 9.942019042968750000e+02 9.940445556640625000e+02 9.938962402343750000e+02 9.937573242187500000e+02 9.936282958984375000e+02 9.935097656250000000e+02 9.934024047851562500e+02 9.933068847656250000e+02 9.932240600585937500e+02 9.931549072265625000e+02 9.931005249023437500e+02 9.930621948242187500e+02 9.930411987304687500e+02 9.930392456054687500e+02 9.930581054687500000e+02 9.930998535156250000e+02 9.931668090820312500e+02 9.932617187500000000e+02 9.933874511718750000e+02 9.935474243164062500e+02 9.937448120117187500e+02 9.939826049804687500e+02 9.942606201171875000e+02 9.945590820312500000e+02 9.947182006835937500e+02 9.947077026367187500e+02 9.946934204101562500e+02 9.946763305664062500e+02 9.946164550781250000e+02 9.945048217773437500e+02 9.943534545898437500e+02 9.941621093750000000e+02 9.939225463867187500e+02 9.936102294921875000e+02 9.931996459960937500e+02 9.926600952148437500e+02 9.921063842773437500e+02 9.918718261718750000e+02 9.920983276367187500e+02 9.927496948242187500e+02 9.937699584960937500e+02 9.951067504882812500e+02 9.965956420898437500e+02 9.973263549804687500e+02 9.975813598632812500e+02 9.976029663085937500e+02 9.974921875000000000e+02 9.972985839843750000e+02 9.970493774414062500e+02 9.967606201171875000e+02 9.964422607421875000e+02 9.961011352539062500e+02 9.957416381835937500e+02 9.953671264648437500e+02 9.949798583984375000e+02 9.945816650390625000e+02 0.000000000000000000e+00 0.000000000000000000e+00 0.000000000000000000e+00 0.000000000000000000e+00 0.000000000000000000e+00 0.000000000000000000e+00 0.000000000000000000e+00 0.000000000000000000e+00 0.000000000000000000e+00 0.000000000000000000e+00 0.000000000000000000e+00 0.000000000000000000e+00 0.000000000000000000e+00 0.000000000000000000e+00 0.000000000000000000e+00 0.000000000000000000e+00 0.000000000000000000e+00 0.000000000000000000e+00 0.000000000000000000e+00 0.000000000000000000e+00 0.000000000000000000e+00 0.000000000000000000e+00 0.000000000000000000e+00 0.000000000000000000e+00
1.004617370605468750e+03 1.004257995605468750e+03 1.003898132324218750e+03 1.003537841796875000e+03 1.003177246093750000e+03 1.002816223144531250e+03 1.002456176757812500e+03 1.002098999023437500e+03 1.001744812011718750e+03 1.001393737792968750e+03 1.001045959472656250e+03 1.000701538085937500e+03 1.000360656738281250e+03 1.000023498535156250e+03 9.996901855468750000e+02 9.993609619140625000e+02 9.990359497070312500e+02 9.987154541015625000e+02 9.983995971679687500e+02 9.980890502929687500e+02 9.977857666015625000e+02 9.974896850585937500e+02 9.972007446289062500e+02 9.969188842773437500e+02 9.966447753906250000e+02 9.963820190429687500e+02 9.961302490234375000e+02 9.958884887695312500e+02 9.956561279296875000e+02 9.954324951171875000e+02 9.952172851562500000e+02 9.950100097656250000e+02 9.948105468750000000e+02 9.946187133789062500e+02 9.944344482421875000e+02 9.942577514648437500e+02 9.940886840820312500e+02 9.939273071289062500e+02 9.937739257812500000e+02 9.936286621093750000e+02 9.934918823242187500e+02 9.933638916015625000e+02 9.932451782226562500e+02 9.931361694335937500e+02 9.930374755859375000e+02 9.929496459960937500e+02 9.928735351562500000e+02 9.928098144531250000e+02 9.927595214843750000e+02 9.927236328125000000e+02 9.927032470703125000e+02 9.926998291015625000e+02 9.927147216796875000e+02 9.927495727539062500e+02 9.928063354492187500e+02 9.928870239257812500e+02 9.929938354492187500e+02 9.931291503906250000e+02 9.932953491210937500e+02 9.934941406250000000e+02 9.937249755859375000e+02 9.939775390625000000e+02 9.941661987304687500e+02 9.941683349609375000e+02 9.941533813476562500e+02 9.941333007812500000e+02 9.941087036132812500e+02 9.940595092773437500e+02 9.939637451171875000e+02 9.938333740234375000e+02 9.936707153320312500e+02 9.934732666015625000e+02 9.932348632812500000e+02 9.929428100585937500e+02 9.925649414062500000e+02 9.920800781250000000e+02 9.917269287109375000e+02 9.916753540039062500e+02 9.920513916015625000e+02 9.928445434570312500e+02 9.939971313476562500e+02 9.954564819335937500e+02 9.970057983398437500e+02 9.977460937500000000e+02 9.980173950195312500e+02 9.980534667968750000e+02 9.979543457031250000e+02 9.977700195312500000e+02 9.975280151367187500e+02 9.972448120117187500e+02 9.969309082031250000e+02 9.965932006835937500e+02 9.962363891601562500e+02 9.958638916015625000e+02 9.954780883789062500e+02 9.950809326171875000e+02 0.000000000000000000e+00 0.000000000000000000e+00 0.000000000000000000e+00 0.000000000000000000e+00 0.000000000000000000e+00 0.000000000000000000e+00 0.000000000000000000e+00 0.000000000000000000e+00 0.000000000000000000e+00 0.000000000000000000e+00 0.000000000000000000e+00 0.000000000000000000e+00 0.000000000000000000e+00 0.000000000000000000e+00 0.000000000000000000e+00 0.000000000000000000e+00 0.000000000000000000e+00 0.000000000000000000e+00 0.000000000000000000e+00 0.000000000000000000e+00 0.000000000000000000e+00 0.000000000000000000e+00 0.000000000000000000e+00
1.003485107421875000e+03 1.003134338378906250e+03 1.002782653808593750e+03 1.002430236816406250e+03 1.002077148437500000e+03 1.001723510742187500e+03 1.001369750976562500e+03 1.001018737792968750e+03 1.000670959472656250e+03 1.000326599121093750e+03 9.999857177734375000e+02 9.996484985351562500e+02 9.993151855468750000e+02 9.989858398437500000e+02 9.986607055664062500e+02 9.983399658203125000e+02 9.980238037109375000e+02 9.977125244140625000e+02 9.974075317382812500e+02 9.971104736328125000e+02 9.968211669921875000e+02 9.965394287109375000e+02 9.962656860351562500e+02 9.960045166015625000e+02 9.957561035156250000e+02 9.955190429687500000e+02 9.952923583984375000e+02 9.950751953125000000e+02 9.948668212890625000e+02 9.946667480468750000e+02 9.944746093750000000e+02 9.942901000976562500e+02 9.941129150390625000e+02 9.939431152343750000e+02 9.937804565429687500e+02 9.936251220703125000e+02 9.934771118164062500e+02 9.933366088867187500e+02 9.932037353515625000e+02 9.930787963867187500e+02 9.929620971679687500e+02 9.928539428710937500e+02 9.927548217773437500e+02 9.926652221679687500e+02 9.925855712890625000e+02 9.925166625976562500e+02 9.924591064453125000e+02 9.924136352539062500e+02 9.923811645507812500e+02 9.923626708984375000e+02 9.923592529296875000e+02 9.923720703125000000e+02 9.924024658203125000e+02 9.924519042968750000e+02 9.925220336914062500e+02 9.926144409179687500e+02 9.927309570312500000e+02 9.928731689453125000e+02 9.930420532226562500e+02 9.932368164062500000e+02 9.934508666992187500e+02 9.936320800781250000e+02 9.936652221679687500e+02 9.936525878906250000e+02 9.936336059570312500e+02 9.936084594726562500e+02 9.935775756835937500e+02 9.935337524414062500e+02 9.934506835937500000e+02 9.933360595703125000e+02 9.931937255859375000e+02 9.930234375000000000e+02 9.928223266601562500e+02 9.925842895507812500e+02 9.922995605468750000e+02 9.919483642578125000e+02 9.915489501953125000e+02 9.913656616210937500e+02 9.914866333007812500e+02 9.920067138671875000e+02 9.929395751953125000e+02 9.942244873046875000e+02 9.958074340820312500e+02 9.974200439453125000e+02 9.981782226562500000e+02 9.984670410156250000e+02 9.985170288085937500e+02 9.984285278320312500e+02 9.982522583007812500e+02 9.980164184570312500e+02 9.977379760742187500e+02 9.974276733398437500e+02 9.970925903320312500e+02 9.967377929687500000e+02 9.963667602539062500e+02 9.959819946289062500e+02 9.955854492187500000e+02 9.951785888671875000e+02 0.000000000000000000e+00 0.000000000000000000e+00 0.000000000000000000e+00 0.000000000000000000e+00 0.000000000000000000e+00 0.000000000000000000e+00 0.000000000000000000e+00 0.000000000000000000e+00 0.000000000000000000e+00 0.000000000000000000e+00 0.000000000000000000e+00 0.000000000000000000e+00 0.000000000000000000e+00 0.000000000000000000e+00 0.000000000000000000e+00 0.000000000000000000e+00 0.000000000000000000e+00 0.000000000000000000e+00 0.000000000000000000e+00 0.000000000000000000e+00 0.000000000000000000e+00
1.002342834472656250e+03 1.002000915527343750e+03 1.001657775878906250e+03 1.001313537597656250e+03 1.000968200683593750e+03 1.000621948242187500e+03 1.000275024414062500e+03 9.999301757812500000e+02 9.995888671875000000e+02 9.992512207031250000e+02 9.989173583984375000e+02 9.985874633789062500e+02 9.982617187500000000e+02 9.979403076171875000e+02 9.976234741210937500e+02 9.973113403320312500e+02 9.970042724609375000e+02 9.967047119140625000e+02 9.964136352539062500e+02 9.961308593750000000e+02 9.958562622070312500e+02 9.955942382812500000e+02 9.953475952148437500e+02 9.951143188476562500e+02 9.948928833007812500e+02 9.946820068359375000e+02 9.944807739257812500e+02 9.942883300781250000e+02 9.941041259765625000e+02 9.939276733398437500e+02 9.937586059570312500e+02 9.935966186523437500e+02 9.934416503906250000e+02 9.932935791015625000e+02 9.931523437500000000e+02 9.930180664062500000e+02 9.928908081054687500e+02 9.927706298828125000e+02 9.926578979492187500e+02 9.925527954101562500e+02 9.924556884765625000e+02 9.923668212890625000e+02 9.922867431640625000e+02 9.922158203125000000e+02 9.921546630859375000e+02 9.921038208007812500e+02 9.920640258789062500e+02 9.920360107421875000e+02 9.920206298828125000e+02 9.920187988281250000e+02 9.920314331054687500e+02 9.920596313476562500e+02 9.921045532226562500e+02 9.921673583984375000e+02 9.922494506835937500e+02 9.923519287109375000e+02 9.924759521484375000e+02 9.926220092773437500e+02 9.927890014648437500e+02 9.929719238281250000e+02 9.931373901367187500e+02 9.931950683593750000e+02 9.931858520507812500e+02 9.931695556640625000e+02 9.931463623046875000e+02 9.931164550781250000e+02 9.930803222656250000e+02 9.930367431640625000e+02 9.929641113281250000e+02 9.928617553710937500e+02 9.927344970703125000e+02 9.925834960937500000e+02 9.924076538085937500e+02 9.922039184570312500e+02 9.919666748046875000e+02 9.916868286132812500e+02 9.913497314453125000e+02 9.910570678710937500e+02 9.910192871093750000e+02 9.912947387695312500e+02 9.919592895507812500e+02 9.930323486328125000e+02 9.944510498046875000e+02 9.961594848632812500e+02 9.978422851562500000e+02 9.986254882812500000e+02 9.989326782226562500e+02 9.989956665039062500e+02 9.989165649414062500e+02 9.987471313476562500e+02 9.985162963867187500e+02 9.982415161132812500e+02 9.979338378906250000e+02 9.976007080078125000e+02 9.972471923828125000e+02 9.968769531250000000e+02 9.964926147460937500e+02 9.960961914062500000e+02 9.956892089843750000e+02 9.952727661132812500e+02 0.000000000000000000e+00 0.000000000000000000e+00 0.000000000000000000e+00 0.000000000000000000e+00 0.000000000000000000e+00 0.000000000000000000e+00 0.000000000000000000e+00 0.000000000000000000e+00 0.000000000000000000e+00 0.000000000000000000e+00 0.000000000000000000e+00 0.000000000000000000e+00 0.000000000000000000e+00 0.000000000000000000e+00 0.000000000000000000e+00 0.000000000000000000e+00 0.000000000000000000e+00 0.000000000000000000e+00 0.000000000000000000e+00
1.001190307617187500e+03 1.000857727050781250e+03 1.000523376464843750e+03 1.000187438964843750e+03 9.998500976562500000e+02 9.995114135742187500e+02 9.991716918945312500e+02 9.988330688476562500e+02 9.984982299804687500e+02 9.981672973632812500e+02 9.978405151367187500e+02 9.975180053710937500e+02 9.972000122070312500e+02 9.968866577148437500e+02 9.965781860351562500e+02 9.962750854492187500e+02 9.959805297851562500e+02 9.956951904296875000e+02 9.954188232421875000e+02 9.951530761718750000e+02 9.949054565429687500e+02 9.946741333007812500e+02 9.944569091796875000e+02 9.942518920898437500e+02 9.940576782226562500e+02 9.938731689453125000e+02 9.936973876953125000e+02 9.935296630859375000e+02 9.933695068359375000e+02 9.932164916992187500e+02 9.930702514648437500e+02 9.929306640625000000e+02 9.927976074218750000e+02 9.926709594726562500e+02 9.925507812500000000e+02 9.924371948242187500e+02 9.923302001953125000e+02 9.922300415039062500e+02 9.921369628906250000e+02 9.920511474609375000e+02 9.919730224609375000e+02 9.919028930664062500e+02 9.918411865234375000e+02 9.917885131835937500e+02 9.917454223632812500e+02 9.917124633789062500e+02 9.916902465820312500e+02 9.916793823242187500e+02 9.916807250976562500e+02 9.916949462890625000e+02 9.917229614257812500e+02 9.917657470703125000e+02 9.918241577148437500e+02 9.918991699218750000e+02 9.919917602539062500e+02 9.921025390625000000e+02 9.922316284179687500e+02 9.923779907226562500e+02 9.925374145507812500e+02 9.926867675781250000e+02 9.927603759765625000e+02 9.927561035156250000e+02 9.927440795898437500e+02 9.927243041992187500e+02 9.926968383789062500e+02 9.926617431640625000e+02 9.926192626953125000e+02 9.925697631835937500e+02 9.925037231445312500e+02 9.924101562500000000e+02 9.922943115234375000e+02 9.921574707031250000e+02 9.919996337890625000e+02 9.918192749023437500e+02 9.916135253906250000e+02 9.913771972656250000e+02 9.911016845703125000e+02 9.907761840820312500e+02 9.905916748046875000e+02 9.906813354492187500e+02 9.910961303710937500e+02 9.919057617187500000e+02 9.931213378906250000e+02 9.946764526367187500e+02 9.965128784179687500e+02 9.982761840820312500e+02 9.990910644531250000e+02 9.994169921875000000e+02 9.994919433593750000e+02 9.994207153320312500e+02 9.992565917968750000e+02 9.990294189453125000e+02 9.987570800781250000e+02 9.984509887695312500e+02 9.981187744140625000e+02 9.977657470703125000e+02 9.973955688476562500e+02 9.970109863281250000e+02 9.966141357421875000e+02 9.962064819335937500e+02 9.957892456054687500e+02 9.953634643554687500e+02 0.000000000000000000e+00 0.000000000000000000e+00 0.000000000000000000e+00 0.000000000000000000e+00 0.000000000000000000e+00 0.000000000000000000e+00 0.000000000000000000e+00 0.000000000000000000e+00 0.000000000000000000e+00 0.000000000000000000e+00 0.000000000000000000e+00 0.000000000000000000e+00 0.000000000000000000e+00 0.000000000000000000e+00 0.000000000000000000e+00 0.000000000000000000e+00 0.000000000000000000e+00
1.000027404785156250e+03 9.997045898437500000e+02 9.993793334960937500e+02 9.990519409179687500e+02 9.987226562500000000e+02 9.983916625976562500e+02 9.980592041015625000e+02 9.977269897460937500e+02 9.973986816406250000e+02 9.970745849609375000e+02 9.967549438476562500e+02 9.964399414062500000e+02 9.961296997070312500e+02 9.958245849609375000e+02 9.955250854492187500e+02 9.952351074218750000e+02 9.949552612304687500e+02 9.946850585937500000e+02 9.944316406250000000e+02 9.941992187500000000e+02 9.939841918945312500e+02 9.937838745117187500e+02 9.935961914062500000e+02 9.934194946289062500e+02 9.932524414062500000e+02 9.930941162109375000e+02 9.929436645507812500e+02 9.928004760742187500e+02 9.926641235351562500e+02 9.925342407226562500e+02 9.924105834960937500e+02 9.922929687500000000e+02 9.921813964843750000e+02 9.920758056640625000e+02 9.919762573242187500e+02 9.918828735351562500e+02 9.917957153320312500e+02 9.917150268554687500e+02 9.916410522460937500e+02 9.915740966796875000e+02 9.915147094726562500e+02 9.914631958007812500e+02 9.914199829101562500e+02 9.913854980468750000e+02 9.913602294921875000e+02 9.913447265625000000e+02 9.913394775390625000e+02 9.913451538085937500e+02 9.913623657226562500e+02 9.913919067382812500e+02 9.914343872070312500e+02 9.914907226562500000e+02 9.915615234375000000e+02 9.916473999023437500e+02 9.917488403320312500e+02 9.918656616210937500e+02 9.919968261718750000e+02 9.921387939453125000e+02 9.922742309570312500e+02 9.923540039062500000e+02 9.923583374023437500e+02 9.923522949218750000e+02 9.923381347656250000e+02 9.923157958984375000e+02 9.922852172851562500e+02 9.922462768554687500e+02 9.921990966796875000e+02 9.921437377929687500e+02 9.920787353515625000e+02 9.919904174804687500e+02 9.918800659179687500e+02 9.917504882812500000e+02 9.916032714843750000e+02 9.914389038085937500e+02 9.912546997070312500e+02 9.910471801757812500e+02 9.908116455078125000e+02 9.905399780273437500e+02 9.902384643554687500e+02 9.901416625976562500e+02 9.903444824218750000e+02 9.908883666992187500e+02 9.918436889648437500e+02 9.932058105468750000e+02 9.949011230468750000e+02 9.968684082031250000e+02 9.987257080078125000e+02 9.995783691406250000e+02 9.999230957031250000e+02 1.000008361816406250e+03 9.999432373046875000e+02 9.997827148437500000e+02 9.995575561523437500e+02 9.992862548828125000e+02 9.989805297851562500e+02 9.986481933593750000e+02 9.982946777343750000e+02 9.979237670898437500e+02 9.975382690429687500e+02 9.971402587890625000e+02 9.967313842773437500e+02 9.963128662109375000e+02 9.958856201171875000e+02 0.000000000000000000e+00 0.000000000000000000e+00 0.000000000000000000e+00 0.000000000000000000e+00 0.000000000000000000e+00 0.000000000000000000e+00 0.000000000000000000e+00 0.000000000000000000e+00 0.000000000000000000e+00 0.000000000000000000e+00 0.000000000000000000e+00 0.000000000000000000e+00 0.000000000000000000e+00 0.000000000000000000e+00 0.000000000000000000e+00 0.000000000000000000e+00
9.988541259765625000e+02 9.985413818359375000e+02 9.982255249023437500e+02 9.979069213867187500e+02 9.975858154296875000e+02 9.972625122070312500e+02 9.969373168945312500e+02 9.966116333007812500e+02 9.962899169921875000e+02 9.959727783203125000e+02 9.956603393554687500e+02 9.953529052734375000e+02 9.950506591796875000e+02 9.947543334960937500e+02 9.944685058593750000e+02 9.941937255859375000e+02 9.939307250976562500e+02 9.936915893554687500e+02 9.934752197265625000e+02 9.932774047851562500e+02 9.930950317382812500e+02 9.929256591796875000e+02 9.927673339843750000e+02 9.926187133789062500e+02 9.924786376953125000e+02 9.923461914062500000e+02 9.922207031250000000e+02 9.921016845703125000e+02 9.919887084960937500e+02 9.918815307617187500e+02 9.917800292968750000e+02 9.916840209960937500e+02 9.915935058593750000e+02 9.915084838867187500e+02 9.914290771484375000e+02 9.913554077148437500e+02 9.912875976562500000e+02 9.912260742187500000e+02 9.911712036132812500e+02 9.911232910156250000e+02 9.910825805664062500e+02 9.910494384765625000e+02 9.910242309570312500e+02 9.910074462890625000e+02 9.909993896484375000e+02 9.910006713867187500e+02 9.910117797851562500e+02 9.910332031250000000e+02 9.910656738281250000e+02 9.911096191406250000e+02 9.911657104492187500e+02 9.912344970703125000e+02 9.913164062500000000e+02 9.914116821289062500e+02 9.915200195312500000e+02 9.916403198242187500e+02 9.917695312500000000e+02 9.918935546875000000e+02 9.919734497070312500e+02 9.919876708984375000e+02 9.919884033203125000e+02 9.919810180664062500e+02 9.919653320312500000e+02 9.919411010742187500e+02 9.919082641601562500e+02 9.918665771484375000e+02 9.918160400390625000e+02 9.917565917968750000e+02 9.916883544921875000e+02 9.916052246093750000e+02 9.915001831054687500e+02 9.913759765625000000e+02 9.912343750000000000e+02 9.910761718750000000e+02 9.909016723632812500e+02 9.907107543945312500e+02 9.905012817382812500e+02 9.902663574218750000e+02 9.899982910156250000e+02 9.897254638671875000e+02 9.896996459960937500e+02 9.900007324218750000e+02 9.906672973632812500e+02 9.917716674804687500e+02 9.932858886718750000e+02 9.951259765625000000e+02 9.972274169921875000e+02 9.991946411132812500e+02 1.000091430664062500e+03 1.000454406738281250e+03 1.000548034667968750e+03 1.000486633300781250e+03 1.000327575683593750e+03 1.000102600097656250e+03 9.998307495117187500e+02 9.995239868164062500e+02 9.991903686523437500e+02 9.988352661132812500e+02 9.984626464843750000e+02 9.980753784179687500e+02 9.976755981445312500e+02 9.972647705078125000e+02 9.968441772460937500e+02 9.964149780273437500e+02 9.959780883789062500e+02 0.000000000000000000e+00 0.000000000000000000e+00 0.000000000000000000e+00 0.000000000000000000e+00 0.000000000000000000e+00 0.000000000000000000e+00 0.000000000000000000e+00 0.000000000000000000e+00 0.000000000000000000e+00 0.000000000000000000e+00 0.000000000000000000e+00 0.000000000000000000e+00 0.000000000000000000e+00 0.000000000000000000e+00
9.976702270507812500e+02 9.973679809570312500e+02 9.970618286132812500e+02 9.967521362304687500e+02 9.964393310546875000e+02 9.961237182617187500e+02 9.958057861328125000e+02 9.954866943359375000e+02 9.951716308593750000e+02 9.948614501953125000e+02 9.945563354492187500e+02 9.942566528320312500e+02 9.939629516601562500e+02 9.936806640625000000e+02 9.934106445312500000e+02 9.931567382812500000e+02 9.929324951171875000e+02 9.927330932617187500e+02 9.925535278320312500e+02 9.923900756835937500e+02 9.922399902343750000e+02 9.921011352539062500e+02 9.919718627929687500e+02 9.918508911132812500e+02 9.917372436523437500e+02 9.916302490234375000e+02 9.915292968750000000e+02 9.914338989257812500e+02 9.913438720703125000e+02 9.912589721679687500e+02 9.911791381835937500e+02 9.911041870117187500e+02 9.910342407226562500e+02 9.909692993164062500e+02 9.909095458984375000e+02 9.908554077148437500e+02 9.908071289062500000e+02 9.907648925781250000e+02 9.907289428710937500e+02 9.906995849609375000e+02 9.906770629882812500e+02 9.906618041992187500e+02 9.906540527343750000e+02 9.906542968750000000e+02 9.906629638671875000e+02 9.906804199218750000e+02 9.907071533203125000e+02 9.907437133789062500e+02 9.907905273437500000e+02 9.908481445312500000e+02 9.909168090820312500e+02 9.909969482421875000e+02 9.910886230468750000e+02 9.911914062500000000e+02 9.913043212890625000e+02 9.914246215820312500e+02 9.915394897460937500e+02 9.916174926757812500e+02 9.916401367187500000e+02 9.916481323242187500e+02 9.916481323242187500e+02 9.916398925781250000e+02 9.916231079101562500e+02 9.915975952148437500e+02 9.915631713867187500e+02 9.915197143554687500e+02 9.914669189453125000e+02 9.914047241210937500e+02 9.913330078125000000e+02 9.912514038085937500e+02 9.911516723632812500e+02 9.910327148437500000e+02 9.908964233398437500e+02 9.907437133789062500e+02 9.905751342773437500e+02 9.903908691406250000e+02 9.901906738281250000e+02 9.899738769531250000e+02 9.897382812500000000e+02 9.894734497070312500e+02 9.892260131835937500e+02 9.892568969726562500e+02 9.896417846679687500e+02 9.904284057617187500e+02 9.916892700195312500e+02 9.933627929687500000e+02 9.953530273437500000e+02 9.975919799804687500e+02 9.996872558593750000e+02 1.000634948730468750e+03 1.001014953613281250e+03 1.001114135742187500e+03 1.001053710937500000e+03 1.000893615722656250e+03 1.000666625976562500e+03 1.000392333984375000e+03 1.000082946777343750e+03 9.997465820312500000e+02 9.993887939453125000e+02 9.990134277343750000e+02 9.986234741210937500e+02 9.982207031250000000e+02 9.978070068359375000e+02 9.973837280273437500e+02 9.969520263671875000e+02 9.965128173828125000e+02 9.960668945312500000e+02 0.000000000000000000e+00 0.000000000000000000e+00 0.000000000000000000e+00 0.000000000000000000e+00 0.000000000000000000e+00 0.000000000000000000e+00 0.000000000000000000e+00 0.000000000000000000e+00 0.000000000000000000e+00 0.000000000000000000e+00 0.000000000000000000e+00 0.000000000000000000e+00
9.964756469726562500e+02 9.961843872070312500e+02 9.958882446289062500e+02 9.955876464843750000e+02 9.952830810546875000e+02 9.949751586914062500e+02 9.946643066406250000e+02 9.943518676757812500e+02 9.940434570312500000e+02 9.937403564453125000e+02 9.934427490234375000e+02 9.931511840820312500e+02 9.928717651367187500e+02 9.926058959960937500e+02 9.923623046875000000e+02 9.921536865234375000e+02 9.919721679687500000e+02 9.918119506835937500e+02 9.916686401367187500e+02 9.915390625000000000e+02 9.914206542968750000e+02 9.913117675781250000e+02 9.912108764648437500e+02 9.911169433593750000e+02 9.910291748046875000e+02 9.909470214843750000e+02 9.908699951171875000e+02 9.907977294921875000e+02 9.907301025390625000e+02 9.906669311523437500e+02 9.906081542968750000e+02 9.905537719726562500e+02 9.905038452148437500e+02 9.904588623046875000e+02 9.904190063476562500e+02 9.903844604492187500e+02 9.903553466796875000e+02 9.903319091796875000e+02 9.903143920898437500e+02 9.903030395507812500e+02 9.902982788085937500e+02 9.903002929687500000e+02 9.903094482421875000e+02 9.903262329101562500e+02 9.903508911132812500e+02 9.903839111328125000e+02 9.904257202148437500e+02 9.904766235351562500e+02 9.905370483398437500e+02 9.906072998046875000e+02 9.906875000000000000e+02 9.907777099609375000e+02 9.908774414062500000e+02 9.909857177734375000e+02 9.911000976562500000e+02 9.912078247070312500e+02 9.912833251953125000e+02 9.913126831054687500e+02 9.913281860351562500e+02 9.913358154296875000e+02 9.913353271484375000e+02 9.913264770507812500e+02 9.913090209960937500e+02 9.912827758789062500e+02 9.912474365234375000e+02 9.912028198242187500e+02 9.911486816406250000e+02 9.910848388671875000e+02 9.910110473632812500e+02 9.909271850585937500e+02 9.908317260742187500e+02 9.907181396484375000e+02 9.905870361328125000e+02 9.904396362304687500e+02 9.902764282226562500e+02 9.900978393554687500e+02 9.899038696289062500e+02 9.896943969726562500e+02 9.894688720703125000e+02 9.892261352539062500e+02 9.889625854492187500e+02 9.887307739257812500e+02 9.888029174804687500e+02 9.892591552734375000e+02 9.901675415039062500e+02 9.915975952148437500e+02 9.934394531250000000e+02 9.955857543945312500e+02 9.979652709960937500e+02 1.000208129882812500e+03 1.001214172363281250e+03 1.001609130859375000e+03 1.001710266113281250e+03 1.001647399902343750e+03 1.001483215332031250e+03 1.001251708984375000e+03 1.000972778320312500e+03 1.000658935546875000e+03 1.000318298339843750e+03 9.999563598632812500e+02 9.995768432617187500e+02 9.991825561523437500e+02 9.987758178710937500e+02 9.983584594726562500e+02 9.979318847656250000e+02 9.974971313476562500e+02 9.970551147460937500e+02 9.966065673828125000e+02 9.961520996093750000e+02 0.000000000000000000e+00 0.000000000000000000e+00 0.000000000000000000e+00 0.000000000000000000e+00 0.000000000000000000e+00 0.000000000000000000e+00 0.000000000000000000e+00 0.000000000000000000e+00 0.000000000000000000e+00 0.000000000000000000e+00
9.952702026367187500e+02 9.949904785156250000e+02 9.947045898437500000e+02 9.944132690429687500e+02 9.941170654296875000e+02 9.938166503906250000e+02 9.935126953125000000e+02 9.932067260742187500e+02 9.929050903320312500e+02 9.926091918945312500e+02 9.923192749023437500e+02 9.920417480468750000e+02 9.917795410156250000e+02 9.915468139648437500e+02 9.913543701171875000e+02 9.911918945312500000e+02 9.910522460937500000e+02 9.909302978515625000e+02 9.908223266601562500e+02 9.907256469726562500e+02 9.906381835937500000e+02 9.905584106445312500e+02 9.904851684570312500e+02 9.904176025390625000e+02 9.903550415039062500e+02 9.902970581054687500e+02 9.902433471679687500e+02 9.901936035156250000e+02 9.901477050781250000e+02 9.901056518554687500e+02 9.900673828125000000e+02 9.900333251953125000e+02 9.900037231445312500e+02 9.899786376953125000e+02 9.899582519531250000e+02 9.899427490234375000e+02 9.899323120117187500e+02 9.899271850585937500e+02 9.899276123046875000e+02 9.899338378906250000e+02 9.899461669921875000e+02 9.899649658203125000e+02 9.899905395507812500e+02 9.900232543945312500e+02 9.900633544921875000e+02 9.901113281250000000e+02 9.901674194335937500e+02 9.902318725585937500e+02 9.903050537109375000e+02 9.903869018554687500e+02 9.904774169921875000e+02 9.905761718750000000e+02 9.906821289062500000e+02 9.907932128906250000e+02 9.908949584960937500e+02 9.909680175781250000e+02 9.910029907226562500e+02 9.910259399414062500e+02 9.910411987304687500e+02 9.910485839843750000e+02 9.910478515625000000e+02 9.910387573242187500e+02 9.910209960937500000e+02 9.909944458007812500e+02 9.909586791992187500e+02 9.909135742187500000e+02 9.908588256835937500e+02 9.907941284179687500e+02 9.907193603515625000e+02 9.906341552734375000e+02 9.905383300781250000e+02 9.904297485351562500e+02 9.903040161132812500e+02 9.901618041992187500e+02 9.900039062500000000e+02 9.898305664062500000e+02 9.896420898437500000e+02 9.894384155273437500e+02 9.892194213867187500e+02 9.889847412109375000e+02 9.887336425781250000e+02 9.884641723632812500e+02 9.882322387695312500e+02 9.883275756835937500e+02 9.888435058593750000e+02 9.898825683593750000e+02 9.914999389648437500e+02 9.935209960937500000e+02 9.958298339843750000e+02 9.983522949218750000e+02 1.000761901855468750e+03 1.001835449218750000e+03 1.002242187500000000e+03 1.002340515136718750e+03 1.002270812988281250e+03 1.002098876953125000e+03 1.001859802246093750e+03 1.001573852539062500e+03 1.001253417968750000e+03 1.000906311035156250e+03 1.000537902832031250e+03 1.000152343750000000e+03 9.997526245117187500e+02 9.993411254882812500e+02 9.989194335937500000e+02 9.984888916015625000e+02 9.980505371093750000e+02 9.976052246093750000e+02 9.971536865234375000e+02 9.966964721679687500e+02 9.962340698242187500e+02 0.000000000000000000e+00 0.000000000000000000e+00 0.000000000000000000e+00 0.000000000000000000e+00 0.000000000000000000e+00 0.000000000000000000e+00 0.000000000000000000e+00 0.000000000000000000e+00
9.940535278320312500e+02 9.937860717773437500e+02 9.935109252929687500e+02 9.932289428710937500e+02 9.929409790039062500e+02 9.926478881835937500e+02 9.923505249023437500e+02 9.920509643554687500e+02 9.917562866210937500e+02 9.914677124023437500e+02 9.911908569335937500e+02 9.909315185546875000e+02 9.907093505859375000e+02 9.905336303710937500e+02 9.903912963867187500e+02 9.902735595703125000e+02 9.901744384765625000e+02 9.900895385742187500e+02 9.900158691406250000e+02 9.899510498046875000e+02 9.898934936523437500e+02 9.898419799804687500e+02 9.897955322265625000e+02 9.897534790039062500e+02 9.897153930664062500e+02 9.896809082031250000e+02 9.896497802734375000e+02 9.896218261718750000e+02 9.895971069335937500e+02 9.895757446289062500e+02 9.895581665039062500e+02 9.895444335937500000e+02 9.895346679687500000e+02 9.895289306640625000e+02 9.895275268554687500e+02 9.895305786132812500e+02 9.895382690429687500e+02 9.895509033203125000e+02 9.895687255859375000e+02 9.895919799804687500e+02 9.896210327148437500e+02 9.896560668945312500e+02 9.896974487304687500e+02 9.897454833984375000e+02 9.898004150390625000e+02 9.898626098632812500e+02 9.899322509765625000e+02 9.900095214843750000e+02 9.900944213867187500e+02 9.901868286132812500e+02 9.902863159179687500e+02 9.903918457031250000e+02 9.905012207031250000e+02 9.905979614257812500e+02 9.906689453125000000e+02 9.907089843750000000e+02 9.907392578125000000e+02 9.907620849609375000e+02 9.907772827148437500e+02 9.907846679687500000e+02 9.907839355468750000e+02 9.907747802734375000e+02 9.907570800781250000e+02 9.907305297851562500e+02 9.906948242187500000e+02 9.906497802734375000e+02 9.905949707031250000e+02 9.905302124023437500e+02 9.904552001953125000e+02 9.903696289062500000e+02 9.902732543945312500e+02 9.901657714843750000e+02 9.900452270507812500e+02 9.899083862304687500e+02 9.897557983398437500e+02 9.895877685546875000e+02 9.894045410156250000e+02 9.892062377929687500e+02 9.889926757812500000e+02 9.887639160156250000e+02 9.885195922851562500e+02 9.882593383789062500e+02 9.879819946289062500e+02 9.877265014648437500e+02 9.878208618164062500e+02 9.883852539062500000e+02 9.895772705078125000e+02 9.914035034179687500e+02 9.936168823242187500e+02 9.960947875976562500e+02 9.987609863281250000e+02 1.001353393554687500e+03 1.002506347656250000e+03 1.002919860839843750e+03 1.003009155273437500e+03 1.002927246093750000e+03 1.002743286132812500e+03 1.002493103027343750e+03 1.002196655273437500e+03 1.001865905761718750e+03 1.001509338378906250e+03 1.001132751464843750e+03 1.000739990234375000e+03 1.000333984375000000e+03 9.999167480468750000e+02 9.994899902343750000e+02 9.990548095703125000e+02 9.986123046875000000e+02 9.981632080078125000e+02 9.977082519531250000e+02 9.972479248046875000e+02 9.967826538085937500e+02 0.000000000000000000e+00 0.000000000000000000e+00 0.000000000000000000e+00 0.000000000000000000e+00 0.000000000000000000e+00 0.000000000000000000e+00 0.000000000000000000e+00
9.928253173828125000e+02 9.925710449218750000e+02 9.923070678710937500e+02 9.920346069335937500e+02 9.917548217773437500e+02 9.914687500000000000e+02 9.911775512695312500e+02 9.908842773437500000e+02 9.905966796875000000e+02 9.903193969726562500e+02 9.900617675781250000e+02 9.898489379882812500e+02 9.896904907226562500e+02 9.895695190429687500e+02 9.894752807617187500e+02 9.894005126953125000e+02 9.893402709960937500e+02 9.892910156250000000e+02 9.892502441406250000e+02 9.892161865234375000e+02 9.891875000000000000e+02 9.891632080078125000e+02 9.891425781250000000e+02 9.891253051757812500e+02 9.891112060546875000e+02 9.890999145507812500e+02 9.890912475585937500e+02 9.890850219726562500e+02 9.890816040039062500e+02 9.890812377929687500e+02 9.890839233398437500e+02 9.890897827148437500e+02 9.890989990234375000e+02 9.891117553710937500e+02 9.891283569335937500e+02 9.891489868164062500e+02 9.891739501953125000e+02 9.892035522460937500e+02 9.892380981445312500e+02 9.892778930664062500e+02 9.893229980468750000e+02 9.893737182617187500e+02 9.894303588867187500e+02 9.894931640625000000e+02 9.895623168945312500e+02 9.896380615234375000e+02 9.897204589843750000e+02 9.898095703125000000e+02 9.899051513671875000e+02 9.900068359375000000e+02 9.901136474609375000e+02 9.902215576171875000e+02 9.903143920898437500e+02 9.903837280273437500e+02 9.904288940429687500e+02 9.904663085937500000e+02 9.904965820312500000e+02 9.905194702148437500e+02 9.905347900390625000e+02 9.905422973632812500e+02 9.905417480468750000e+02 9.905328979492187500e+02 9.905155029296875000e+02 9.904893188476562500e+02 9.904540405273437500e+02 9.904093627929687500e+02 9.903551025390625000e+02 9.902908325195312500e+02 9.902163085937500000e+02 9.901312255859375000e+02 9.900352172851562500e+02 9.899279785156250000e+02 9.898092041015625000e+02 9.896776123046875000e+02 9.895304565429687500e+02 9.893679199218750000e+02 9.891901245117187500e+02 9.889971313476562500e+02 9.887889404296875000e+02 9.885654907226562500e+02 9.883265380859375000e+02 9.880719604492187500e+02 9.878016357421875000e+02 9.875150756835937500e+02 9.872218627929687500e+02 9.872733154296875000e+02 9.878739013671875000e+02 9.892644042968750000e+02 9.913231201171875000e+02 9.937443847656250000e+02 9.963964843750000000e+02 9.992040405273437500e+02 1.001986328125000000e+03 1.003235778808593750e+03 1.003648803710937500e+03 1.003720886230468750e+03 1.003620056152343750e+03 1.003417785644531250e+03 1.003150207519531250e+03 1.002838256835937500e+03 1.002494506835937500e+03 1.002126953125000000e+03 1.001740783691406250e+03 1.001339721679687500e+03 1.000926330566406250e+03 1.000502624511718750e+03 1.000070007324218750e+03 9.996295776367187500e+02 9.991823730468750000e+02 9.987290039062500000e+02 9.982697143554687500e+02 9.978043823242187500e+02 9.973351440429687500e+02 9.968635253906250000e+02 0.000000000000000000e+00 0.000000000000000000e+00 0.000000000000000000e+00 0.000000000000000000e+00 0.000000000000000000e+00
9.915848999023437500e+02 9.913449707031250000e+02 9.910928955078125000e+02 9.908302001953125000e+02 9.905583496093750000e+02 9.902788696289062500e+02 9.899932861328125000e+02 9.897063598632812500e+02 9.894277954101562500e+02 9.891704711914062500e+02 9.889645385742187500e+02 9.888236694335937500e+02 9.887255859375000000e+02 9.886566162109375000e+02 9.886081542968750000e+02 9.885742797851562500e+02 9.885511474609375000e+02 9.885358886718750000e+02 9.885266723632812500e+02 9.885224609375000000e+02 9.885230102539062500e+02 9.885270385742187500e+02 9.885337524414062500e+02 9.885424194335937500e+02 9.885527343750000000e+02 9.885644531250000000e+02 9.885777587890625000e+02 9.885930175781250000e+02 9.886104125976562500e+02 9.886299438476562500e+02 9.886518554687500000e+02 9.886762695312500000e+02 9.887034301757812500e+02 9.887336425781250000e+02 9.887671508789062500e+02 9.888041992187500000e+02 9.888451538085937500e+02 9.888902587890625000e+02 9.889398803710937500e+02 9.889943237304687500e+02 9.890538940429687500e+02 9.891189575195312500e+02 9.891898193359375000e+02 9.892666015625000000e+02 9.893493041992187500e+02 9.894378051757812500e+02 9.895321655273437500e+02 9.896320800781250000e+02 9.897372436523437500e+02 9.898466796875000000e+02 9.899523925781250000e+02 9.900421752929687500e+02 9.901102905273437500e+02 9.901613769531250000e+02 9.902056884765625000e+02 9.902431640625000000e+02 9.902734985351562500e+02 9.902965698242187500e+02 9.903121337890625000e+02 9.903199462890625000e+02 9.903198242187500000e+02 9.903114013671875000e+02 9.902946166992187500e+02 9.902690429687500000e+02 9.902344970703125000e+02 9.901906738281250000e+02 9.901373291015625000e+02 9.900740356445312500e+02 9.900006103515625000e+02 9.899166259765625000e+02 9.898217773437500000e+02 9.897156982421875000e+02 9.895980834960937500e+02 9.894684448242187500e+02 9.893263549804687500e+02 9.891694335937500000e+02 9.889973144531250000e+02 9.888100585937500000e+02 9.886074829101562500e+02 9.883895874023437500e+02 9.881560058593750000e+02 9.879066772460937500e+02 9.876413574218750000e+02 9.873599853515625000e+02 9.870625610351562500e+02 9.867487182617187500e+02 9.866781005859375000e+02 9.872989501953125000e+02 9.889602661132812500e+02 9.912897949218750000e+02 9.939356079101562500e+02 9.967632446289062500e+02 9.997030029296875000e+02 1.002661132812500000e+03 1.004034667968750000e+03 1.004436218261718750e+03 1.004477539062500000e+03 1.004345581054687500e+03 1.004116638183593750e+03 1.003827331542968750e+03 1.003497558593750000e+03 1.003138916015625000e+03 1.002758666992187500e+03 1.002361633300781250e+03 1.001951049804687500e+03 1.001529357910156250e+03 1.001098266601562500e+03 1.000659057617187500e+03 1.000212768554687500e+03 9.997579956054687500e+02 9.992951660156250000e+02 9.988274536132812500e+02 9.983570556640625000e+02 9.978852539062500000e+02 9.974130249023437500e+02 9.969409790039062500e+02 0.000000000000000000e+00 0.000000000000000000e+00 0.000000000000000000e+00
9.903311767578125000e+02 9.901075439453125000e+02 9.898682861328125000e+02 9.896155395507812500e+02 9.893513793945312500e+02 9.890778808593750000e+02 9.887971191406250000e+02 9.885172119140625000e+02 9.882578735351562500e+02 9.880550537109375000e+02 9.879318847656250000e+02 9.878583984375000000e+02 9.878169555664062500e+02 9.877968750000000000e+02 9.877915039062500000e+02 9.877962646484375000e+02 9.878093872070312500e+02 9.878300781250000000e+02 9.878556518554687500e+02 9.878842773437500000e+02 9.879147338867187500e+02 9.879462890625000000e+02 9.879785156250000000e+02 9.880110473632812500e+02 9.880438232421875000e+02 9.880772705078125000e+02 9.881116943359375000e+02 9.881472167968750000e+02 9.881840820312500000e+02 9.882223510742187500e+02 9.882623901367187500e+02 9.883043823242187500e+02 9.883485717773437500e+02 9.883953247070312500e+02 9.884448852539062500e+02 9.884975585937500000e+02 9.885536499023437500e+02 9.886135253906250000e+02 9.886774902343750000e+02 9.887457885742187500e+02 9.888187866210937500e+02 9.888967895507812500e+02 9.889799804687500000e+02 9.890685424804687500e+02 9.891627197265625000e+02 9.892624511718750000e+02 9.893676147460937500e+02 9.894772949218750000e+02 9.895894775390625000e+02 9.896921386718750000e+02 9.897795410156250000e+02 9.898476562500000000e+02 9.899051513671875000e+02 9.899561767578125000e+02 9.900005493164062500e+02 9.900381469726562500e+02 9.900687255859375000e+02 9.900920410156250000e+02 9.901079711914062500e+02 9.901162719726562500e+02 9.901166992187500000e+02 9.901090087890625000e+02 9.900929565429687500e+02 9.900682983398437500e+02 9.900347900390625000e+02 9.899921264648437500e+02 9.899400024414062500e+02 9.898781127929687500e+02 9.898062133789062500e+02 9.897238769531250000e+02 9.896307983398437500e+02 9.895266113281250000e+02 9.894109497070312500e+02 9.892833862304687500e+02 9.891435546875000000e+02 9.889910278320312500e+02 9.888248901367187500e+02 9.886436767578125000e+02 9.884472045898437500e+02 9.882353515625000000e+02 9.880078735351562500e+02 9.877644042968750000e+02 9.875046386718750000e+02 9.872282714843750000e+02 9.869350585937500000e+02 9.866251220703125000e+02 9.862990112304687500e+02 9.860458374023437500e+02 9.866578369140625000e+02 9.887205810546875000e+02 9.913745727539062500e+02 9.942563476562500000e+02 9.972484741210937500e+02 1.000296752929687500e+03 1.003362365722656250e+03 1.004904357910156250e+03 1.005272094726562500e+03 1.005267822265625000e+03 1.005097473144531250e+03 1.004837707519531250e+03 1.004523620605468750e+03 1.004173583984375000e+03 1.003798034667968750e+03 1.003403503417968750e+03 1.002994201660156250e+03 1.002573059082031250e+03 1.002142089843750000e+03 1.001702575683593750e+03 1.001250000000000000e+03 1.000787231445312500e+03 1.000318664550781250e+03 9.998471069335937500e+02 9.993741455078125000e+02 9.989010009765625000e+02 9.984284667968750000e+02 9.979569091796875000e+02 9.974867553710937500e+02 9.970181274414062500e+02 0.000000000000000000e+00
9.890624389648437500e+02 9.888579101562500000e+02 9.886329345703125000e+02 9.883905639648437500e+02 9.881337280273437500e+02 9.878652954101562500e+02 9.875888061523437500e+02 9.873244018554687500e+02 9.871195068359375000e+02 9.870137329101562500e+02 9.869669189453125000e+02 9.869556274414062500e+02 9.869666748046875000e+02 9.869924316406250000e+02 9.870319213867187500e+02 9.870808105468750000e+02 9.871348876953125000e+02 9.871916503906250000e+02 9.872494506835937500e+02 9.873072509765625000e+02 9.873645629882812500e+02 9.874210205078125000e+02 9.874764404296875000e+02 9.875308837890625000e+02 9.875849609375000000e+02 9.876390380859375000e+02 9.876931762695312500e+02 9.877476806640625000e+02 9.878027954101562500e+02 9.878587646484375000e+02 9.879158325195312500e+02 9.879744262695312500e+02 9.880347290039062500e+02 9.880971679687500000e+02 9.881619262695312500e+02 9.882294311523437500e+02 9.882999877929687500e+02 9.883739013671875000e+02 9.884514160156250000e+02 9.885328979492187500e+02 9.886185913085937500e+02 9.887086791992187500e+02 9.888034057617187500e+02 9.889028930664062500e+02 9.890071411132812500e+02 9.891160278320312500e+02 9.892292480468750000e+02 9.893397216796875000e+02 9.894393310546875000e+02 9.895250244140625000e+02 9.895954589843750000e+02 9.896591796875000000e+02 9.897166137695312500e+02 9.897677001953125000e+02 9.898121948242187500e+02 9.898499755859375000e+02 9.898808593750000000e+02 9.899046020507812500e+02 9.899210205078125000e+02 9.899299316406250000e+02 9.899310913085937500e+02 9.899242553710937500e+02 9.899092407226562500e+02 9.898856811523437500e+02 9.898534545898437500e+02 9.898121948242187500e+02 9.897616577148437500e+02 9.897015380859375000e+02 9.896314697265625000e+02 9.895512084960937500e+02 9.894604492187500000e+02 9.893587036132812500e+02 9.892456665039062500e+02 9.891209716796875000e+02 9.889841308593750000e+02 9.888347778320312500e+02 9.886745605468750000e+02 9.885039062500000000e+02 9.883212890625000000e+02 9.881245117187500000e+02 9.879118041992187500e+02 9.876812133789062500e+02 9.874303588867187500e+02 9.871567382812500000e+02 9.868584594726562500e+02 9.865369262695312500e+02 9.862070922851562500e+02 9.858656616210937500e+02 9.855076904296875000e+02 9.860416870117187500e+02 9.887443847656250000e+02 9.917644042968750000e+02 9.948308715820312500e+02 9.978973388671875000e+02 1.000963745117187500e+03 1.004030212402343750e+03 1.005820251464843750e+03 1.006147949218750000e+03 1.006089416503906250e+03 1.005874328613281250e+03 1.005579345703125000e+03 1.005237182617187500e+03 1.004864379882812500e+03 1.004470031738281250e+03 1.004059692382812500e+03 1.003636962890625000e+03 1.003202880859375000e+03 1.002749572753906250e+03 1.002283569335937500e+03 1.001810913085937500e+03 1.001335083007812500e+03 1.000858276367187500e+03 1.000381835937500000e+03 9.999064941406250000e+02 9.994328613281250000e+02 9.989611816406250000e+02 9.984916992187500000e+02 9.980244750976562500e+02 9.975595703125000000e+02
9.877750244140625000e+02 9.875946044921875000e+02 9.873864746093750000e+02 9.871551513671875000e+02 9.869049682617187500e+02 9.866403808593750000e+02 9.863713989257812500e+02 9.861573486328125000e+02 9.860676269531250000e+02 9.860501708984375000e+02 9.860725708007812500e+02 9.861190185546875000e+02 9.861869506835937500e+02 9.862675781250000000e+02 9.863543090820312500e+02 9.864433593750000000e+02 9.865325927734375000e+02 9.866206665039062500e+02 9.867068481445312500e+02 9.867906494140625000e+02 9.868720703125000000e+02 9.869509887695312500e+02 9.870277099609375000e+02 9.871029052734375000e+02 9.871769409179687500e+02 9.872501220703125000e+02 9.873226318359375000e+02 9.873948974609375000e+02 9.874671630859375000e+02 9.875397338867187500e+02 9.876129150390625000e+02 9.876871948242187500e+02 9.877627563476562500e+02 9.878399658203125000e+02 9.879191894531250000e+02 9.880007934570312500e+02 9.880849609375000000e+02 9.881721191406250000e+02 9.882625122070312500e+02 9.883563842773437500e+02 9.884539794921875000e+02 9.885554199218750000e+02 9.886609497070312500e+02 9.887703857421875000e+02 9.888837280273437500e+02 9.889976806640625000e+02 9.891031494140625000e+02 9.891980590820312500e+02 9.892800292968750000e+02 9.893536987304687500e+02 9.894225463867187500e+02 9.894861450195312500e+02 9.895435791015625000e+02 9.895947875976562500e+02 9.896395263671875000e+02 9.896776123046875000e+02 9.897088623046875000e+02 9.897331542968750000e+02 9.897501831054687500e+02 9.897598266601562500e+02 9.897619018554687500e+02 9.897560424804687500e+02 9.897421875000000000e+02 9.897199707031250000e+02 9.896892089843750000e+02 9.896495971679687500e+02 9.896008911132812500e+02 9.895427856445312500e+02 9.894749755859375000e+02 9.893971557617187500e+02 9.893100585937500000e+02 9.892185058593750000e+02 9.891229248046875000e+02 9.890227661132812500e+02 9.889174804687500000e+02 9.888064575195312500e+02 9.886889038085937500e+02 9.885638427734375000e+02 9.884303588867187500e+02 9.882870483398437500e+02 9.881324462890625000e+02 9.879647216796875000e+02 9.877816162109375000e+02 9.875804443359375000e+02 9.873580932617187500e+02 9.871105346679687500e+02 9.868328857421875000e+02 9.865197753906250000e+02 9.861677246093750000e+02 9.858015136718750000e+02 9.867517700195312500e+02 9.893676757812500000e+02 9.924314575195312500e+02 9.954979248046875000e+02 9.985643920898437500e+02 1.001630859375000000e+03 1.004697265625000000e+03 1.006782897949218750e+03 1.007064392089843750e+03 1.006939880371093750e+03 1.006672790527343750e+03 1.006337829589843750e+03 1.005964538574218750e+03 1.005566711425781250e+03 1.005151855468750000e+03 1.004721069335937500e+03 1.004262512207031250e+03 1.003788391113281250e+03 1.003307128906250000e+03 1.002823181152343750e+03 1.002338989257812500e+03 1.001856140136718750e+03 1.001375305175781250e+03 1.000897094726562500e+03 1.000421752929687500e+03 9.999494628906250000e+02 9.994802246093750000e+02 9.990140991210937500e+02 9.985509643554687500e+02
9.864616088867187500e+02 9.863147583007812500e+02 9.861282348632812500e+02 9.859091186523437500e+02 9.856645507812500000e+02 9.854017944335937500e+02 9.851691894531250000e+02 9.850917968750000000e+02 9.851076049804687500e+02 9.851691284179687500e+02 9.852659301757812500e+02 9.853822021484375000e+02 9.855065917968750000e+02 9.856331787109375000e+02 9.857588500976562500e+02 9.858818359375000000e+02 9.860012207031250000e+02 9.861165161132812500e+02 9.862276611328125000e+02 9.863346557617187500e+02 9.864376831054687500e+02 9.865371093750000000e+02 9.866338500976562500e+02 9.867282714843750000e+02 9.868208007812500000e+02 9.869116821289062500e+02 9.870013427734375000e+02 9.870900878906250000e+02 9.871784057617187500e+02 9.872665405273437500e+02 9.873549194335937500e+02 9.874439086914062500e+02 9.875338745117187500e+02 9.876251220703125000e+02 9.877179565429687500e+02 9.878128051757812500e+02 9.879099121093750000e+02 9.880095825195312500e+02 9.881119995117187500e+02 9.882175292968750000e+02 9.883262329101562500e+02 9.884382324218750000e+02 9.885535278320312500e+02 9.886701049804687500e+02 9.887798461914062500e+02 9.888809204101562500e+02 9.889716186523437500e+02 9.890526123046875000e+02 9.891286621093750000e+02 9.892000122070312500e+02 9.892665405273437500e+02 9.893282470703125000e+02 9.893850708007812500e+02 9.894364624023437500e+02 9.894814453125000000e+02 9.895198974609375000e+02 9.895516967773437500e+02 9.895765991210937500e+02 9.895943603515625000e+02 9.896049194335937500e+02 9.896079711914062500e+02 9.896033325195312500e+02 9.895907592773437500e+02 9.895700073242187500e+02 9.895409545898437500e+02 9.895031738281250000e+02 9.894565429687500000e+02 9.894045410156250000e+02 9.893511962890625000e+02 9.892965087890625000e+02 9.892401123046875000e+02 9.891818237304687500e+02 9.891213989257812500e+02 9.890585937500000000e+02 9.889930419921875000e+02 9.889243774414062500e+02 9.888521118164062500e+02 9.887758178710937500e+02 9.886948852539062500e+02 9.886087036132812500e+02 9.885164794921875000e+02 9.884173583984375000e+02 9.883103637695312500e+02 9.881943969726562500e+02 9.880683593750000000e+02 9.879313354492187500e+02 9.877830200195312500e+02 9.876254272460937500e+02 9.874679565429687500e+02 9.873517456054687500e+02 9.875798339843750000e+02 9.893408813476562500e+02 9.913568115234375000e+02 9.935765380859375000e+02 9.962247314453125000e+02 9.992314453125000000e+02 1.002297912597656250e+03 1.005364318847656250e+03 1.007792785644531250e+03 1.008019592285156250e+03 1.007813415527343750e+03 1.007486145019531250e+03 1.007106872558593750e+03 1.006699645996093750e+03 1.006268615722656250e+03 1.005797302246093750e+03 1.005307556152343750e+03 1.004811340332031250e+03 1.004313842773437500e+03 1.003817810058593750e+03 1.003324645996093750e+03 1.002835021972656250e+03 1.002349304199218750e+03 1.001867736816406250e+03 1.001390319824218750e+03 1.000916992187500000e+03 1.000447753906250000e+03 9.999824218750000000e+02 9.995208740234375000e+02
9.851030273437500000e+02 9.850106811523437500e+02 9.848564453125000000e+02 9.846522827148437500e+02 9.844114379882812500e+02 9.841602172851562500e+02 9.840844726562500000e+02 9.841395874023437500e+02 9.842592163085937500e+02 9.844152221679687500e+02 9.845836181640625000e+02 9.847543945312500000e+02 9.849227905273437500e+02 9.850864257812500000e+02 9.852443237304687500e+02 9.853959350585937500e+02 9.855411987304687500e+02 9.856802368164062500e+02 9.858133544921875000e+02 9.859408569335937500e+02 9.860634155273437500e+02 9.861819458007812500e+02 9.862970581054687500e+02 9.864090576171875000e+02 9.865184936523437500e+02 9.866257324218750000e+02 9.867312011718750000e+02 9.868353881835937500e+02 9.869385986328125000e+02 9.870412597656250000e+02 9.871438598632812500e+02 9.872466430664062500e+02 9.873500366210937500e+02 9.874544067382812500e+02 9.875601196289062500e+02 9.876674194335937500e+02 9.877766113281250000e+02 9.878879394531250000e+02 9.880016479492187500e+02 9.881179809570312500e+02 9.882368774414062500e+02 9.883562622070312500e+02 9.884693603515625000e+02 9.885749511718750000e+02 9.886719970703125000e+02 9.887600097656250000e+02 9.888428344726562500e+02 9.889210815429687500e+02 9.889947509765625000e+02 9.890637207031250000e+02 9.891279907226562500e+02 9.891875610351562500e+02 9.892422485351562500e+02 9.892921142578125000e+02 9.893370971679687500e+02 9.893760375976562500e+02 9.894083862304687500e+02 9.894339599609375000e+02 9.894526367187500000e+02 9.894641723632812500e+02 9.894683227539062500e+02 9.894650268554687500e+02 9.894539184570312500e+02 9.894348144531250000e+02 9.894094848632812500e+02 9.893837890625000000e+02 9.893581542968750000e+02 9.893325805664062500e+02 9.893069458007812500e+02 9.892811889648437500e+02 9.892551879882812500e+02 9.892288818359375000e+02 9.892022094726562500e+02 9.891749267578125000e+02 9.891470947265625000e+02 9.891184082031250000e+02 9.890888671875000000e+02 9.890581665039062500e+02 9.890263061523437500e+02 9.889929809570312500e+02 9.889581298828125000e+02 9.889216308593750000e+02 9.888834228515625000e+02 9.888436889648437500e+02 9.888028564453125000e+02 9.887620849609375000e+02 9.887238159179687500e+02 9.886937255859375000e+02 9.886849975585937500e+02 9.887333984375000000e+02 9.889649658203125000e+02 9.900236206054687500e+02 9.919300537109375000e+02 9.939459838867187500e+02 9.959619140625000000e+02 9.980015258789062500e+02 1.000297912597656250e+03 1.002981201171875000e+03 1.006031433105468750e+03 1.008840515136718750e+03 1.009004821777343750e+03 1.008696105957031250e+03 1.008301208496093750e+03 1.007863830566406250e+03 1.007365722656250000e+03 1.006848266601562500e+03 1.006327636718750000e+03 1.005809326171875000e+03 1.005295532226562500e+03 1.004787231445312500e+03 1.004284790039062500e+03 1.003788146972656250e+03 1.003297363281250000e+03 1.002812255859375000e+03 1.002332580566406250e+03 1.001858154296875000e+03 1.001388732910156250e+03 1.000924133300781250e+03 1.000464172363281250e+03
9.837341308593750000e+02 9.836567993164062500e+02 9.835656738281250000e+02 9.833845214843750000e+02 9.831437988281250000e+02 9.830438232421875000e+02 9.831571044921875000e+02 9.833554687500000000e+02 9.835770263671875000e+02 9.838012084960937500e+02 9.840206298828125000e+02 9.842322998046875000e+02 9.844350585937500000e+02 9.846285400390625000e+02 9.848129272460937500e+02 9.849885253906250000e+02 9.851557617187500000e+02 9.853151855468750000e+02 9.854673461914062500e+02 9.856130371093750000e+02 9.857534179687500000e+02 9.858891601562500000e+02 9.860206909179687500e+02 9.861486206054687500e+02 9.862733764648437500e+02 9.863955688476562500e+02 9.865155029296875000e+02 9.866337890625000000e+02 9.867507934570312500e+02 9.868668823242187500e+02 9.869825439453125000e+02 9.870982055664062500e+02 9.872141113281250000e+02 9.873306884765625000e+02 9.874482421875000000e+02 9.875671386718750000e+02 9.876875000000000000e+02 9.878096923828125000e+02 9.879337768554687500e+02 9.880556030273437500e+02 9.881713867187500000e+02 9.882805786132812500e+02 9.883823242187500000e+02 9.884763183593750000e+02 9.885653686523437500e+02 9.886500244140625000e+02 9.887301635742187500e+02 9.888058471679687500e+02 9.888770141601562500e+02 9.889436645507812500e+02 9.890056762695312500e+02 9.890630493164062500e+02 9.891157836914062500e+02 9.891636962890625000e+02 9.892068481445312500e+02 9.892451171875000000e+02 9.892780761718750000e+02 9.893045043945312500e+02 9.893240966796875000e+02 9.893367309570312500e+02 9.893421630859375000e+02 9.893402099609375000e+02 9.893345947265625000e+02 9.893299560546875000e+02 9.893262939453125000e+02 9.893236083984375000e+02 9.893219604492187500e+02 9.893213500976562500e+02 9.893217163085937500e+02 9.893231201171875000e+02 9.893255004882812500e+02 9.893289794921875000e+02 9.893334960937500000e+02 9.893391723632812500e+02 9.893459472656250000e+02 9.893539428710937500e+02 9.893632812500000000e+02 9.893740234375000000e+02 9.893863525390625000e+02 9.894005737304687500e+02 9.894169311523437500e+02 9.894359741210937500e+02 9.894583740234375000e+02 9.894851684570312500e+02 9.895179443359375000e+02 9.895592651367187500e+02 9.896132812500000000e+02 9.896875000000000000e+02 9.897959594726562500e+02 9.899685668945312500e+02 9.902807006835937500e+02 9.909846801757812500e+02 9.925741577148437500e+02 9.945191650390625000e+02 9.965350952148437500e+02 9.985510253906250000e+02 1.000567016601562500e+03 1.002582946777343750e+03 1.004604675292968750e+03 1.006851989746093750e+03 1.009764953613281250e+03 1.009987121582031250e+03 1.009536071777343750e+03 1.008979919433593750e+03 1.008414550781250000e+03 1.007856262207031250e+03 1.007307617187500000e+03 1.006768981933593750e+03 1.006239990234375000e+03 1.005720092773437500e+03 1.005208862304687500e+03 1.004705688476562500e+03 1.004210083007812500e+03 1.003721679687500000e+03 1.003239990234375000e+03 1.002764709472656250e+03 1.002295471191406250e+03 1.001831909179687500e+03 1.001373779296875000e+03
9.826140747070312500e+02 9.823843994140625000e+02 9.822234497070312500e+02 9.821055297851562500e+02 9.819686889648437500e+02 9.821903686523437500e+02 9.824818725585937500e+02 9.827742919921875000e+02 9.830563354492187500e+02 9.833250732421875000e+02 9.835801391601562500e+02 9.838216552734375000e+02 9.840502929687500000e+02 9.842668457031250000e+02 9.844721069335937500e+02 9.846668701171875000e+02 9.848520507812500000e+02 9.850282592773437500e+02 9.851965332031250000e+02 9.853581542968750000e+02 9.855139160156250000e+02 9.856644287109375000e+02 9.858103637695312500e+02 9.859522705078125000e+02 9.860906372070312500e+02 9.862260131835937500e+02 9.863590087890625000e+02 9.864899291992187500e+02 9.866193237304687500e+02 9.867476196289062500e+02 9.868752441406250000e+02 9.870025024414062500e+02 9.871298217773437500e+02 9.872575683593750000e+02 9.873860473632812500e+02 9.875154418945312500e+02 9.876440429687500000e+02 9.877676391601562500e+02 9.878856811523437500e+02 9.879977416992187500e+02 9.881032104492187500e+02 9.882023315429687500e+02 9.882969970703125000e+02 9.883873901367187500e+02 9.884735107421875000e+02 9.885552368164062500e+02 9.886326904296875000e+02 9.887057495117187500e+02 9.887744140625000000e+02 9.888386840820312500e+02 9.888984375000000000e+02 9.889537353515625000e+02 9.890044555664062500e+02 9.890505371093750000e+02 9.890919189453125000e+02 9.891286010742187500e+02 9.891604614257812500e+02 9.891873168945312500e+02 9.892079467773437500e+02 9.892218017578125000e+02 9.892322998046875000e+02 9.892444458007812500e+02 9.892582397460937500e+02 9.892736816406250000e+02 9.892908935546875000e+02 9.893098144531250000e+02 9.893305664062500000e+02 9.893531494140625000e+02 9.893776245117187500e+02 9.894041748046875000e+02 9.894327392578125000e+02 9.894635620117187500e+02 9.894967651367187500e+02 9.895324096679687500e+02 9.895707397460937500e+02 9.896119995117187500e+02 9.896564941406250000e+02 9.897045288085937500e+02 9.897565917968750000e+02 9.898132324218750000e+02 9.898751831054687500e+02 9.899433593750000000e+02 9.900191040039062500e+02 9.901040649414062500e+02 9.902006835937500000e+02 9.903125000000000000e+02 9.904446411132812500e+02 9.906036376953125000e+02 9.908026733398437500e+02 9.910668945312500000e+02 9.914480590820312500e+02 9.920720214843750000e+02 9.932905273437500000e+02 9.950476684570312500e+02 9.969871826171875000e+02 9.989707031250000000e+02 1.000955993652343750e+03 1.002944946289062500e+03 1.004939270019531250e+03 1.006938476562500000e+03 1.008933593750000000e+03 1.010715637207031250e+03 1.010558288574218750e+03 1.009956604003906250e+03 1.009360046386718750e+03 1.008778564453125000e+03 1.008212463378906250e+03 1.007660400390625000e+03 1.007121093750000000e+03 1.006593322753906250e+03 1.006076171875000000e+03 1.005568786621093750e+03 1.005070434570312500e+03 1.004580444335937500e+03 1.004098388671875000e+03 1.003624206542968750e+03 1.003157470703125000e+03 1.002697631835937500e+03 1.002244201660156250e+03
9.820740356445312500e+02 9.817265625000000000e+02 9.813637084960937500e+02 9.810665283203125000e+02 9.813682861328125000e+02 9.817347412109375000e+02 9.820832519531250000e+02 9.824113769531250000e+02 9.827200927734375000e+02 9.830107421875000000e+02 9.832846679687500000e+02 9.835431518554687500e+02 9.837874145507812500e+02 9.840184936523437500e+02 9.842375488281250000e+02 9.844454956054687500e+02 9.846432495117187500e+02 9.848317871093750000e+02 9.850125732421875000e+02 9.851865844726562500e+02 9.853544921875000000e+02 9.855169067382812500e+02 9.856745605468750000e+02 9.858280029296875000e+02 9.859777221679687500e+02 9.861243896484375000e+02 9.862683715820312500e+02 9.864102172851562500e+02 9.865504150390625000e+02 9.866893310546875000e+02 9.868273925781250000e+02 9.869649658203125000e+02 9.871023559570312500e+02 9.872370605468750000e+02 9.873670043945312500e+02 9.874921264648437500e+02 9.876120605468750000e+02 9.877265014648437500e+02 9.878350219726562500e+02 9.879389038085937500e+02 9.880385742187500000e+02 9.881340942382812500e+02 9.882254638671875000e+02 9.883126831054687500e+02 9.883957519531250000e+02 9.884746093750000000e+02 9.885492553710937500e+02 9.886196899414062500e+02 9.886858520507812500e+02 9.887477416992187500e+02 9.888052978515625000e+02 9.888584594726562500e+02 9.889072265625000000e+02 9.889515380859375000e+02 9.889912719726562500e+02 9.890264282226562500e+02 9.890568847656250000e+02 9.890826416015625000e+02 9.891055908203125000e+02 9.891311645507812500e+02 9.891588134765625000e+02 9.891886596679687500e+02 9.892206420898437500e+02 9.892548828125000000e+02 9.892914428710937500e+02 9.893304443359375000e+02 9.893719482421875000e+02 9.894159545898437500e+02 9.894627685546875000e+02 9.895123901367187500e+02 9.895650634765625000e+02 9.896209106445312500e+02 9.896802368164062500e+02 9.897432250976562500e+02 9.898102416992187500e+02 9.898817138671875000e+02 9.899579467773437500e+02 9.900396118164062500e+02 9.901273803710937500e+02 9.902220458984375000e+02 9.903246459960937500e+02 9.904365234375000000e+02 9.905590820312500000e+02 9.906918945312500000e+02 9.908372802734375000e+02 9.909990234375000000e+02 9.911826171875000000e+02 9.913962402343750000e+02 9.916524658203125000e+02 9.919724121093750000e+02 9.923936157226562500e+02 9.929920654296875000e+02 9.939484252929687500e+02 9.954514160156250000e+02 9.972227172851562500e+02 9.990954589843750000e+02 1.000984619140625000e+03 1.002864562988281250e+03 1.004730712890625000e+03 1.006571777343750000e+03 1.008356018066406250e+03 1.009656066894531250e+03 1.010358825683593750e+03 1.010528747558593750e+03 1.010038696289062500e+03 1.009496276855468750e+03 1.008952636718750000e+03 1.008414978027343750e+03 1.007885803222656250e+03 1.007365905761718750e+03 1.006855468750000000e+03 1.006354309082031250e+03 1.005862182617187500e+03 1.005378662109375000e+03 1.004903320312500000e+03 1.004435791015625000e+03 1.003975585937500000e+03 1.003522277832031250e+03 1.003075439453125000e+03
9.820828857421875000e+02 9.818304443359375000e+02 9.816394653320312500e+02 9.815269165039062500e+02 9.816763305664062500e+02 9.819176025390625000e+02 9.821762084960937500e+02 9.824354858398437500e+02 9.826894531250000000e+02 9.829448242187500000e+02 9.832003784179687500e+02 9.834494018554687500e+02 9.836893920898437500e+02 9.839196166992187500e+02 9.841400146484375000e+02 9.843508911132812500e+02 9.845527954101562500e+02 9.847469482421875000e+02 9.849341430664062500e+02 9.851151123046875000e+02 9.852904052734375000e+02 9.854605102539062500e+02 9.856260986328125000e+02 9.857876586914062500e+02 9.859457397460937500e+02 9.861008300781250000e+02 9.862532958984375000e+02 9.864037475585937500e+02 9.865520629882812500e+02 9.866962890625000000e+02 9.868362426757812500e+02 9.869718017578125000e+02 9.871028442382812500e+02 9.872291870117187500e+02 9.873506469726562500e+02 9.874671020507812500e+02 9.875791625976562500e+02 9.876871948242187500e+02 9.877911987304687500e+02 9.878912353515625000e+02 9.879872436523437500e+02 9.880792236328125000e+02 9.881671752929687500e+02 9.882511596679687500e+02 9.883311157226562500e+02 9.884070434570312500e+02 9.884789428710937500e+02 9.885466918945312500e+02 9.886103515625000000e+02 9.886699218750000000e+02 9.887252807617187500e+02 9.887764282226562500e+02 9.888233032226562500e+02 9.888658447265625000e+02 9.889039916992187500e+02 9.889376831054687500e+02 9.889672241210937500e+02 9.889987792968750000e+02 9.890343627929687500e+02 9.890742187500000000e+02 9.891179199218750000e+02 9.891642456054687500e+02 9.892131958007812500e+02 9.892649536132812500e+02 9.893195190429687500e+02 9.893770751953125000e+02 9.894376831054687500e+02 9.895015869140625000e+02 9.895688476562500000e+02 9.896397094726562500e+02 9.897144165039062500e+02 9.897932128906250000e+02 9.898764038085937500e+02 9.899643554687500000e+02 9.900574951171875000e+02 9.901563110351562500e+02 9.902614135742187500e+02 9.903734741210937500e+02 9.904933471679687500e+02 9.906217651367187500e+02 9.907569580078125000e+02 9.908997192382812500e+02 9.910518188476562500e+02 9.912155761718750000e+02 9.913937988281250000e+02 9.915905761718750000e+02 9.918112182617187500e+02 9.920634765625000000e+02 9.923586425781250000e+02 9.927141723632812500e+02 9.931586303710937500e+02 9.937427978515625000e+02 9.945674438476562500e+02 9.958220214843750000e+02 9.973978881835937500e+02 9.991091308593750000e+02 1.000882690429687500e+03 1.002647949218750000e+03 1.004388061523437500e+03 1.006090454101562500e+03 1.007594299316406250e+03 1.008706359863281250e+03 1.009488647460937500e+03 1.009999023437500000e+03 1.010286682128906250e+03 1.010032775878906250e+03 1.009558288574218750e+03 1.009059509277343750e+03 1.008557128906250000e+03 1.008057556152343750e+03 1.007563537597656250e+03 1.007076171875000000e+03 1.006595947265625000e+03 1.006123168945312500e+03 1.005657653808593750e+03 1.005199279785156250e+03 1.004747741699218750e+03 1.004302795410156250e+03 1.003864074707031250e+03
9.823764648437500000e+02 9.822205200195312500e+02 9.820284423828125000e+02 9.819778442382812500e+02 9.820811767578125000e+02 9.822565917968750000e+02 9.824722900390625000e+02 9.826996459960937500e+02 9.829296875000000000e+02 9.831582641601562500e+02 9.833834228515625000e+02 9.836038818359375000e+02 9.838186035156250000e+02 9.840275268554687500e+02 9.842305908203125000e+02 9.844277954101562500e+02 9.846198730468750000e+02 9.848073730468750000e+02 9.849902954101562500e+02 9.851688232421875000e+02 9.853430175781250000e+02 9.855128173828125000e+02 9.856784057617187500e+02 9.858397216796875000e+02 9.859968872070312500e+02 9.861499023437500000e+02 9.862987060546875000e+02 9.864433593750000000e+02 9.865838012695312500e+02 9.867199707031250000e+02 9.868518066406250000e+02 9.869791259765625000e+02 9.871024169921875000e+02 9.872217407226562500e+02 9.873371582031250000e+02 9.874486083984375000e+02 9.875562744140625000e+02 9.876600341796875000e+02 9.877598876953125000e+02 9.878559570312500000e+02 9.879481811523437500e+02 9.880366210937500000e+02 9.881211547851562500e+02 9.882018432617187500e+02 9.882786865234375000e+02 9.883516235351562500e+02 9.884207153320312500e+02 9.884858398437500000e+02 9.885470581054687500e+02 9.886042480468750000e+02 9.886574707031250000e+02 9.887066040039062500e+02 9.887515869140625000e+02 9.887924804687500000e+02 9.888291015625000000e+02 9.888639526367187500e+02 9.889027709960937500e+02 9.889460449218750000e+02 9.889937744140625000e+02 9.890460815429687500e+02 9.891031494140625000e+02 9.891647338867187500e+02 9.892294921875000000e+02 9.892974853515625000e+02 9.893687133789062500e+02 9.894434814453125000e+02 9.895217895507812500e+02 9.896039428710937500e+02 9.896900634765625000e+02 9.897805175781250000e+02 9.898754272460937500e+02 9.899752807617187500e+02 9.900803222656250000e+02 9.901910400390625000e+02 9.903079833984375000e+02 9.904317626953125000e+02 9.905629882812500000e+02 9.907006835937500000e+02 9.908433227539062500e+02 9.909919433593750000e+02 9.911477050781250000e+02 9.913120727539062500e+02 9.914868774414062500e+02 9.916744384765625000e+02 9.918776855468750000e+02 9.921004638671875000e+02 9.923480224609375000e+02 9.926273193359375000e+02 9.929484863281250000e+02 9.933259887695312500e+02 9.937822875976562500e+02 9.943537597656250000e+02 9.951039428710937500e+02 9.961567993164062500e+02 9.975404052734375000e+02 9.991036987304687500e+02 1.000731079101562500e+03 1.002386596679687500e+03 1.004014099121093750e+03 1.005554077148437500e+03 1.006830383300781250e+03 1.007851013183593750e+03 1.008645324707031250e+03 1.009241516113281250e+03 1.009665100097656250e+03 1.009938903808593750e+03 1.009938415527343750e+03 1.009562927246093750e+03 1.009118774414062500e+03 1.008656860351562500e+03 1.008190551757812500e+03 1.007725280761718750e+03 1.007263610839843750e+03 1.006806701660156250e+03 1.006355102539062500e+03 1.005909301757812500e+03 1.005469238281250000e+03 1.005035034179687500e+03 1.004606384277343750e+03
9.827999267578125000e+02 9.826278076171875000e+02 9.824415893554687500e+02 9.824201049804687500e+02 9.824970703125000000e+02 9.826293945312500000e+02 9.828007202148437500e+02 9.829948730468750000e+02 9.831971435546875000e+02 9.834019775390625000e+02 9.836062011718750000e+02 9.838081054687500000e+02 9.840064697265625000e+02 9.842007446289062500e+02 9.843903808593750000e+02 9.845755615234375000e+02 9.847568969726562500e+02 9.849342041015625000e+02 9.851074218750000000e+02 9.852765502929687500e+02 9.854415893554687500e+02 9.856025390625000000e+02 9.857593994140625000e+02 9.859121704101562500e+02 9.860609741210937500e+02 9.862057495117187500e+02 9.863466186523437500e+02 9.864835205078125000e+02 9.866165771484375000e+02 9.867457885742187500e+02 9.868712158203125000e+02 9.869927978515625000e+02 9.871106567382812500e+02 9.872247924804687500e+02 9.873352050781250000e+02 9.874419555664062500e+02 9.875449829101562500e+02 9.876444091796875000e+02 9.877401123046875000e+02 9.878321533203125000e+02 9.879205932617187500e+02 9.880053100585937500e+02 9.880864257812500000e+02 9.881638183593750000e+02 9.882375488281250000e+02 9.883075561523437500e+02 9.883738403320312500e+02 9.884363403320312500e+02 9.884950561523437500e+02 9.885499877929687500e+02 9.886010131835937500e+02 9.886481933593750000e+02 9.886914062500000000e+02 9.887307128906250000e+02 9.887710571289062500e+02 9.888159179687500000e+02 9.888653564453125000e+02 9.889194335937500000e+02 9.889783935546875000e+02 9.890422363281250000e+02 9.891112060546875000e+02 9.891853637695312500e+02 9.892646484375000000e+02 9.893476562500000000e+02 9.894343872070312500e+02 9.895249633789062500e+02 9.896196899414062500e+02 9.897186889648437500e+02 9.898222656250000000e+02 9.899306640625000000e+02 9.900441894531250000e+02 9.901633300781250000e+02 9.902884521484375000e+02 9.904201049804687500e+02 9.905587768554687500e+02 9.907026367187500000e+02 9.908503417968750000e+02 9.910027465820312500e+02 9.911606445312500000e+02 9.913250122070312500e+02 9.914971313476562500e+02 9.916785278320312500e+02 9.918709106445312500e+02 9.920767211914062500e+02 9.922987060546875000e+02 9.925406494140625000e+02 9.928073120117187500e+02 9.931052246093750000e+02 9.934430541992187500e+02 9.938331909179687500e+02 9.942935791015625000e+02 9.948514404296875000e+02 9.955502929687500000e+02 9.964654541015625000e+02 9.976824340820312500e+02 9.990855712890625000e+02 1.000581726074218750e+03 1.002111694335937500e+03 1.003629516601562500e+03 1.004976440429687500e+03 1.006120544433593750e+03 1.007076721191406250e+03 1.007861694335937500e+03 1.008492187500000000e+03 1.008983886718750000e+03 1.009350952148437500e+03 1.009606140136718750e+03 1.009740844726562500e+03 1.009508300781250000e+03 1.009131530761718750e+03 1.008716613769531250e+03 1.008287475585937500e+03 1.007853637695312500e+03 1.007419555664062500e+03 1.006987609863281250e+03 1.006559020996093750e+03 1.006134277343750000e+03 1.005713867187500000e+03 1.005297973632812500e+03
9.832280883789062500e+02 9.830122070312500000e+02 9.828698730468750000e+02 9.828542480468750000e+02 9.829114990234375000e+02 9.830141601562500000e+02 9.831492309570312500e+02 9.833099975585937500e+02 9.834846801757812500e+02 9.836653442382812500e+02 9.838480224609375000e+02 9.840304565429687500e+02 9.842111206054687500e+02 9.843890380859375000e+02 9.845637207031250000e+02 9.847355957031250000e+02 9.849045410156250000e+02 9.850703125000000000e+02 9.852326660156250000e+02 9.853915405273437500e+02 9.855468750000000000e+02 9.856986083984375000e+02 9.858467407226562500e+02 9.859912719726562500e+02 9.861321411132812500e+02 9.862694091796875000e+02 9.864030151367187500e+02 9.865330810546875000e+02 9.866595458984375000e+02 9.867824096679687500e+02 9.869017944335937500e+02 9.870176391601562500e+02 9.871299438476562500e+02 9.872388305664062500e+02 9.873441772460937500e+02 9.874460449218750000e+02 9.875444335937500000e+02 9.876394042968750000e+02 9.877308959960937500e+02 9.878189086914062500e+02 9.879034423828125000e+02 9.879845581054687500e+02 9.880621337890625000e+02 9.881362304687500000e+02 9.882068481445312500e+02 9.882738647460937500e+02 9.883374023437500000e+02 9.883972778320312500e+02 9.884536132812500000e+02 9.885062866210937500e+02 9.885552368164062500e+02 9.886004638671875000e+02 9.886425170898437500e+02 9.886874389648437500e+02 9.887370605468750000e+02 9.887913818359375000e+02 9.888505249023437500e+02 9.889146728515625000e+02 9.889839477539062500e+02 9.890584106445312500e+02 9.891383056640625000e+02 9.892237548828125000e+02 9.893150024414062500e+02 9.894118041992187500e+02 9.895128784179687500e+02 9.896181640625000000e+02 9.897280273437500000e+02 9.898425903320312500e+02 9.899622192382812500e+02 9.900872192382812500e+02 9.902179565429687500e+02 9.903548583984375000e+02 9.904984741210937500e+02 9.906469726562500000e+02 9.907985229492187500e+02 9.909536743164062500e+02 9.911129760742187500e+02 9.912772827148437500e+02 9.914473876953125000e+02 9.916243286132812500e+02 9.918093872070312500e+02 9.920039672851562500e+02 9.922098999023437500e+02 9.924294433593750000e+02 9.926652832031250000e+02 9.929210205078125000e+02 9.932009887695312500e+02 9.935110473632812500e+02 9.938588867187500000e+02 9.942550659179687500e+02 9.947141113281250000e+02 9.952571411132812500e+02 9.959157714843750000e+02 9.967399291992187500e+02 9.978084106445312500e+02 9.990642700195312500e+02 1.000438720703125000e+03 1.001848449707031250e+03 1.003208618164062500e+03 1.004417480468750000e+03 1.005468872070312500e+03 1.006372375488281250e+03 1.007139099121093750e+03 1.007780151367187500e+03 1.008306152343750000e+03 1.008726806640625000e+03 1.009050964355468750e+03 1.009286560058593750e+03 1.009441040039062500e+03 1.009386657714843750e+03 1.009094787597656250e+03 1.008735290527343750e+03 1.008348205566406250e+03 1.007948974609375000e+03 1.007544799804687500e+03 1.007139465332031250e+03 1.006735107421875000e+03 1.006332885742187500e+03 1.005933288574218750e+03
