1.078239501953125000e+03 1.078216308593750000e+03 1.078191894531250000e+03 1.078166259765625000e+03 1.078139282226562500e+03 1.078111206054687500e+03 1.078081909179687500e+03 1.078051513671875000e+03 1.078020019531250000e+03 1.077987792968750000e+03 1.077954589843750000e+03 1.077920410156250000e+03 1.077885498046875000e+03 1.077849609375000000e+03 1.077812866210937500e+03 1.077775146484375000e+03 1.077736450195312500e+03 1.077695922851562500e+03 1.077653198242187500e+03 1.077608276367187500e+03 1.077561157226562500e+03 1.077511596679687500e+03 1.077459716796875000e+03 1.077405273437500000e+03 1.077348144531250000e+03 1.077288452148437500e+03 1.077225952148437500e+03 1.077160766601562500e+03 1.077093505859375000e+03 1.077037353515625000e+03 1.077238647460937500e+03 1.077477783203125000e+03 1.077717529296875000e+03 1.077956909179687500e+03 1.078195922851562500e+03 1.078434570312500000e+03 1.078672851562500000e+03 1.078910766601562500e+03 1.079148437500000000e+03 1.079385986328125000e+03 1.079621826171875000e+03 1.079847900390625000e+03 1.080063842773437500e+03 1.080270263671875000e+03 1.080467773437500000e+03 1.080656982421875000e+03 1.080838256835937500e+03 1.081011474609375000e+03 1.081175170898437500e+03 1.081329711914062500e+03 1.081475952148437500e+03 1.081615478515625000e+03 1.081749267578125000e+03 1.081877685546875000e+03 1.082000854492187500e+03 1.082119262695312500e+03 1.082233032226562500e+03 1.082342285156250000e+03 1.082447387695312500e+03 1.082548583984375000e+03 1.082645751953125000e+03 1.082739257812500000e+03 1.082829223632812500e+03 1.082915649414062500e+03 1.082998779296875000e+03 1.083078735351562500e+03 1.083155395507812500e+03 1.083229125976562500e+03 1.083299682617187500e+03 1.083367431640625000e+03 1.083432373046875000e+03 1.083494384765625000e+03 1.083553710937500000e+03 1.083610351562500000e+03 1.083664306640625000e+03 1.083715576171875000e+03 1.083764282226562500e+03 1.083810668945312500e+03 1.083854858398437500e+03 1.083897094726562500e+03 1.083937255859375000e+03 1.083975341796875000e+03 1.084011596679687500e+03 1.084045776367187500e+03 1.084078125000000000e+03 1.084108642578125000e+03 1.084137329101562500e+03 1.084164062500000000e+03 1.084189208984375000e+03 1.084211425781250000e+03 1.084229736328125000e+03 1.084244140625000000e+03 1.084254760742187500e+03 1.084261718750000000e+03 1.084265136718750000e+03 1.084264892578125000e+03 1.084261352539062500e+03 1.084254516601562500e+03 1.084244384765625000e+03 1.084231079101562500e+03 1.084214721679687500e+03 1.084195190429687500e+03 1.084172729492187500e+03 1.084147338867187500e+03 1.084119140625000000e+03 1.084088134765625000e+03 1.084054321289062500e+03 1.084017822265625000e+03 1.083978637695312500e+03 1.083937622070312500e+03 1.083895385742187500e+03 1.083851928710937500e+03 1.083807373046875000e+03 1.083761718750000000e+03 1.083715087890625000e+03 1.083667602539062500e+03 1.083619384765625000e+03 1.083570434570312500e+03 1.083520874023437500e+03
1.078212158203125000e+03 1.078189331054687500e+03 1.078165283203125000e+03 1.078140014648437500e+03 1.078113525390625000e+03 1.078085815429687500e+03 1.078056884765625000e+03 1.078026977539062500e+03 1.077995849609375000e+03 1.077963745117187500e+03 1.077930541992187500e+03 1.077896362304687500e+03 1.077861328125000000e+03 1.077825439453125000e+03 1.077788574218750000e+03 1.077750854492187500e+03 1.077711181640625000e+03 1.077669555664062500e+03 1.077625854492187500e+03 1.077579956054687500e+03 1.077531738281250000e+03 1.077481323242187500e+03 1.077428588867187500e+03 1.077373291015625000e+03 1.077315551757812500e+03 1.077255493164062500e+03 1.077193115234375000e+03 1.077129516601562500e+03 1.077071533203125000e+03 1.077069580078125000e+03 1.077213134765625000e+03 1.077444702148437500e+03 1.077681396484375000e+03 1.077918701171875000e+03 1.078156005859375000e+03 1.078393188476562500e+03 1.078630004882812500e+03 1.078866577148437500e+03 1.079103027343750000e+03 1.079339233398437500e+03 1.079575317382812500e+03 1.079806274414062500e+03 1.080026977539062500e+03 1.080237915039062500e+03 1.080439819335937500e+03 1.080633300781250000e+03 1.080818603515625000e+03 1.080996459960937500e+03 1.081165161132812500e+03 1.081324584960937500e+03 1.081475341796875000e+03 1.081617919921875000e+03 1.081754150390625000e+03 1.081884521484375000e+03 1.082009521484375000e+03 1.082129394531250000e+03 1.082244384765625000e+03 1.082354858398437500e+03 1.082460815429687500e+03 1.082562622070312500e+03 1.082660522460937500e+03 1.082754516601562500e+03 1.082844848632812500e+03 1.082931518554687500e+03 1.083014892578125000e+03 1.083094848632812500e+03 1.083171630859375000e+03 1.083245361328125000e+03 1.083315917968750000e+03 1.083383544921875000e+03 1.083448364257812500e+03 1.083510253906250000e+03 1.083569458007812500e+03 1.083625854492187500e+03 1.083679565429687500e+03 1.083730712890625000e+03 1.083779174804687500e+03 1.083825195312500000e+03 1.083869140625000000e+03 1.083910888671875000e+03 1.083950683593750000e+03 1.083988525390625000e+03 1.084024291992187500e+03 1.084058227539062500e+03 1.084090332031250000e+03 1.084120483398437500e+03 1.084148803710937500e+03 1.084175292968750000e+03 1.084200195312500000e+03 1.084222656250000000e+03 1.084241210937500000e+03 1.084255859375000000e+03 1.084266601562500000e+03 1.084273681640625000e+03 1.084276977539062500e+03 1.084276855468750000e+03 1.084273315429687500e+03 1.084266357421875000e+03 1.084256103515625000e+03 1.084242675781250000e+03 1.084226074218750000e+03 1.084206420898437500e+03 1.084183715820312500e+03 1.084158081054687500e+03 1.084129516601562500e+03 1.084098266601562500e+03 1.084064086914062500e+03 1.084027343750000000e+03 1.083988037109375000e+03 1.083947265625000000e+03 1.083905273437500000e+03 1.083862182617187500e+03 1.083817871093750000e+03 1.083772460937500000e+03 1.083726196289062500e+03 1.083678955078125000e+03 1.083631103515625000e+03 1.083582397460937500e+03 1.083533203125000000e+03
1.078188842773437500e+03 1.078166503906250000e+03 1.078142822265625000e+03 1.078117919921875000e+03 1.078091796875000000e+03 1.078064453125000000e+03 1.078036010742187500e+03 1.078006591796875000e+03 1.077975952148437500e+03 1.077944335937500000e+03 1.077911621093750000e+03 1.077877929687500000e+03 1.077843383789062500e+03 1.077807739257812500e+03 1.077771240234375000e+03 1.077732910156250000e+03 1.077692626953125000e+03 1.077650512695312500e+03 1.077606323242187500e+03 1.077560180664062500e+03 1.077511962890625000e+03 1.077461791992187500e+03 1.077409667968750000e+03 1.077355590820312500e+03 1.077299682617187500e+03 1.077242431640625000e+03 1.077188720703125000e+03 1.077145629882812500e+03 1.077129150390625000e+03 1.077173828125000000e+03 1.077269653320312500e+03 1.077444946289062500e+03 1.077665527343750000e+03 1.077896118164062500e+03 1.078128784179687500e+03 1.078362426757812500e+03 1.078596435546875000e+03 1.078830566406250000e+03 1.079064819335937500e+03 1.079299072265625000e+03 1.079533203125000000e+03 1.079766723632812500e+03 1.079991943359375000e+03 1.080207397460937500e+03 1.080413696289062500e+03 1.080611206054687500e+03 1.080800659179687500e+03 1.080982543945312500e+03 1.081156250000000000e+03 1.081320312500000000e+03 1.081475341796875000e+03 1.081622070312500000e+03 1.081761108398437500e+03 1.081893920898437500e+03 1.082020874023437500e+03 1.082142456054687500e+03 1.082258911132812500e+03 1.082370605468750000e+03 1.082477539062500000e+03 1.082580322265625000e+03 1.082678710937500000e+03 1.082773315429687500e+03 1.082864013671875000e+03 1.082951049804687500e+03 1.083034545898437500e+03 1.083114624023437500e+03 1.083191528320312500e+03 1.083265136718750000e+03 1.083335693359375000e+03 1.083403198242187500e+03 1.083467773437500000e+03 1.083529541015625000e+03 1.083588378906250000e+03 1.083644653320312500e+03 1.083698120117187500e+03 1.083748901367187500e+03 1.083797241210937500e+03 1.083842895507812500e+03 1.083886352539062500e+03 1.083927734375000000e+03 1.083967041015625000e+03 1.084004394531250000e+03 1.084039916992187500e+03 1.084073364257812500e+03 1.084104980468750000e+03 1.084134765625000000e+03 1.084162719726562500e+03 1.084188964843750000e+03 1.084213378906250000e+03 1.084235961914062500e+03 1.084254760742187500e+03 1.084269653320312500e+03 1.084280517578125000e+03 1.084287719726562500e+03 1.084291137695312500e+03 1.084291015625000000e+03 1.084287353515625000e+03 1.084280273437500000e+03 1.084269897460937500e+03 1.084256347656250000e+03 1.084239501953125000e+03 1.084219604492187500e+03 1.084196655273437500e+03 1.084170776367187500e+03 1.084141967773437500e+03 1.084110229492187500e+03 1.084075805664062500e+03 1.084038574218750000e+03 1.083999511718750000e+03 1.083959106445312500e+03 1.083917358398437500e+03 1.083874511718750000e+03 1.083830444335937500e+03 1.083785400390625000e+03 1.083739379882812500e+03 1.083692504882812500e+03 1.083644897460937500e+03 1.083596557617187500e+03 1.083547607421875000e+03
1.078169555664062500e+03 1.078147583007812500e+03 1.078124267578125000e+03 1.078099731445312500e+03 1.078074096679687500e+03 1.078047241210937500e+03 1.078019287109375000e+03 1.077990234375000000e+03 1.077960205078125000e+03 1.077929077148437500e+03 1.077896972656250000e+03 1.077864013671875000e+03 1.077830078125000000e+03 1.077795166015625000e+03 1.077758544921875000e+03 1.077720092773437500e+03 1.077679809570312500e+03 1.077637695312500000e+03 1.077593750000000000e+03 1.077547973632812500e+03 1.077500366210937500e+03 1.077451049804687500e+03 1.077400146484375000e+03 1.077347900390625000e+03 1.077297119140625000e+03 1.077252319335937500e+03 1.077216796875000000e+03 1.077199096679687500e+03 1.077220458984375000e+03 1.077275512695312500e+03 1.077363037109375000e+03 1.077490478515625000e+03 1.077674072265625000e+03 1.077887939453125000e+03 1.078113525390625000e+03 1.078341918945312500e+03 1.078571777343750000e+03 1.078802490234375000e+03 1.079033691406250000e+03 1.079265258789062500e+03 1.079497070312500000e+03 1.079729125976562500e+03 1.079958496093750000e+03 1.080178222656250000e+03 1.080388793945312500e+03 1.080590576171875000e+03 1.080784057617187500e+03 1.080969848632812500e+03 1.081148071289062500e+03 1.081317260742187500e+03 1.081476806640625000e+03 1.081627685546875000e+03 1.081770385742187500e+03 1.081905761718750000e+03 1.082034912109375000e+03 1.082158447265625000e+03 1.082276611328125000e+03 1.082389526367187500e+03 1.082497802734375000e+03 1.082601318359375000e+03 1.082700683593750000e+03 1.082795776367187500e+03 1.082886840820312500e+03 1.082974243164062500e+03 1.083057983398437500e+03 1.083138183593750000e+03 1.083214965820312500e+03 1.083288574218750000e+03 1.083359008789062500e+03 1.083426391601562500e+03 1.083490722656250000e+03 1.083552246093750000e+03 1.083610839843750000e+03 1.083666748046875000e+03 1.083719970703125000e+03 1.083770507812500000e+03 1.083818359375000000e+03 1.083863769531250000e+03 1.083906738281250000e+03 1.083947509765625000e+03 1.083986450195312500e+03 1.084023315429687500e+03 1.084058227539062500e+03 1.084091186523437500e+03 1.084122314453125000e+03 1.084151611328125000e+03 1.084179199218750000e+03 1.084204956054687500e+03 1.084229003906250000e+03 1.084251342773437500e+03 1.084270507812500000e+03 1.084285522460937500e+03 1.084296630859375000e+03 1.084303833007812500e+03 1.084307373046875000e+03 1.084307250976562500e+03 1.084303588867187500e+03 1.084296386718750000e+03 1.084285888671875000e+03 1.084272094726562500e+03 1.084255004882812500e+03 1.084234863281250000e+03 1.084211669921875000e+03 1.084185424804687500e+03 1.084156250000000000e+03 1.084124145507812500e+03 1.084089233398437500e+03 1.084052001953125000e+03 1.084013183593750000e+03 1.083973022460937500e+03 1.083931640625000000e+03 1.083889038085937500e+03 1.083845336914062500e+03 1.083800537109375000e+03 1.083754760742187500e+03 1.083708129882812500e+03 1.083660766601562500e+03 1.083612792968750000e+03 1.083564208984375000e+03
1.078154418945312500e+03 1.078132812500000000e+03 1.078109863281250000e+03 1.078085693359375000e+03 1.078060424804687500e+03 1.078034057617187500e+03 1.078006591796875000e+03 1.077978149414062500e+03 1.077948608398437500e+03 1.077918090820312500e+03 1.077886718750000000e+03 1.077854492187500000e+03 1.077821166992187500e+03 1.077786132812500000e+03 1.077749511718750000e+03 1.077711059570312500e+03 1.077671020507812500e+03 1.077629272460937500e+03 1.077585815429687500e+03 1.077540771484375000e+03 1.077494262695312500e+03 1.077446289062500000e+03 1.077398071289062500e+03 1.077353637695312500e+03 1.077314819335937500e+03 1.077284301757812500e+03 1.077267333984375000e+03 1.077276489257812500e+03 1.077314575195312500e+03 1.077374389648437500e+03 1.077458374023437500e+03 1.077567504882812500e+03 1.077713989257812500e+03 1.077900268554687500e+03 1.078109741210937500e+03 1.078331298828125000e+03 1.078555786132812500e+03 1.078782226562500000e+03 1.079009765625000000e+03 1.079238037109375000e+03 1.079466918945312500e+03 1.079696166992187500e+03 1.079925903320312500e+03 1.080150024414062500e+03 1.080364746093750000e+03 1.080570678710937500e+03 1.080768310546875000e+03 1.080958007812500000e+03 1.081140258789062500e+03 1.081314697265625000e+03 1.081479248046875000e+03 1.081634521484375000e+03 1.081781250000000000e+03 1.081920166015625000e+03 1.082051757812500000e+03 1.082177246093750000e+03 1.082297241210937500e+03 1.082411865234375000e+03 1.082521362304687500e+03 1.082626098632812500e+03 1.082726196289062500e+03 1.082821899414062500e+03 1.082913574218750000e+03 1.083001220703125000e+03 1.083085205078125000e+03 1.083165527343750000e+03 1.083242309570312500e+03 1.083315795898437500e+03 1.083386108398437500e+03 1.083453247070312500e+03 1.083517333984375000e+03 1.083578491210937500e+03 1.083636840820312500e+03 1.083692382812500000e+03 1.083745239257812500e+03 1.083795288085937500e+03 1.083842773437500000e+03 1.083887817382812500e+03 1.083930175781250000e+03 1.083970458984375000e+03 1.084008789062500000e+03 1.084045043945312500e+03 1.084079345703125000e+03 1.084111694335937500e+03 1.084142333984375000e+03 1.084171142578125000e+03 1.084198120117187500e+03 1.084223266601562500e+03 1.084246826171875000e+03 1.084268798828125000e+03 1.084288208007812500e+03 1.084303588867187500e+03 1.084314819335937500e+03 1.084322143554687500e+03 1.084325683593750000e+03 1.084325561523437500e+03 1.084321777343750000e+03 1.084314575195312500e+03 1.084303833007812500e+03 1.084289794921875000e+03 1.084272583007812500e+03 1.084252075195312500e+03 1.084228515625000000e+03 1.084201904296875000e+03 1.084172363281250000e+03 1.084139892578125000e+03 1.084104614257812500e+03 1.084067504882812500e+03 1.084029052734375000e+03 1.083989257812500000e+03 1.083948120117187500e+03 1.083905761718750000e+03 1.083862304687500000e+03 1.083817871093750000e+03 1.083772460937500000e+03 1.083726074218750000e+03 1.083678955078125000e+03 1.083631225585937500e+03 1.083582519531250000e+03
1.078143432617187500e+03 1.078121948242187500e+03 1.078099365234375000e+03 1.078075683593750000e+03 1.078050781250000000e+03 1.078024902343750000e+03 1.077998046875000000e+03 1.077970092773437500e+03 1.077941284179687500e+03 1.077911499023437500e+03 1.077880859375000000e+03 1.077848999023437500e+03 1.077815673828125000e+03 1.077780639648437500e+03 1.077744140625000000e+03 1.077706054687500000e+03 1.077666259765625000e+03 1.077625122070312500e+03 1.077582519531250000e+03 1.077538574218750000e+03 1.077493408203125000e+03 1.077449462890625000e+03 1.077409790039062500e+03 1.077375366210937500e+03 1.077348510742187500e+03 1.077332519531250000e+03 1.077334960937500000e+03 1.077363037109375000e+03 1.077407958984375000e+03 1.077470703125000000e+03 1.077552612304687500e+03 1.077654541015625000e+03 1.077777221679687500e+03 1.077936035156250000e+03 1.078123657226562500e+03 1.078330444335937500e+03 1.078548461914062500e+03 1.078769653320312500e+03 1.078992675781250000e+03 1.079217163085937500e+03 1.079442626953125000e+03 1.079668823242187500e+03 1.079895629882812500e+03 1.080122314453125000e+03 1.080341308593750000e+03 1.080551513671875000e+03 1.080753173828125000e+03 1.080947021484375000e+03 1.081133178710937500e+03 1.081312133789062500e+03 1.081482055664062500e+03 1.081642211914062500e+03 1.081793334960937500e+03 1.081936157226562500e+03 1.082071289062500000e+03 1.082199340820312500e+03 1.082321044921875000e+03 1.082437500000000000e+03 1.082548461914062500e+03 1.082654418945312500e+03 1.082755493164062500e+03 1.082851928710937500e+03 1.082944091796875000e+03 1.083032226562500000e+03 1.083116333007812500e+03 1.083196777343750000e+03 1.083273559570312500e+03 1.083347045898437500e+03 1.083417114257812500e+03 1.083484008789062500e+03 1.083547729492187500e+03 1.083608642578125000e+03 1.083666503906250000e+03 1.083721557617187500e+03 1.083773925781250000e+03 1.083823608398437500e+03 1.083870605468750000e+03 1.083915039062500000e+03 1.083957031250000000e+03 1.083996582031250000e+03 1.084034179687500000e+03 1.084069702148437500e+03 1.084103393554687500e+03 1.084135131835937500e+03 1.084165039062500000e+03 1.084193115234375000e+03 1.084219482421875000e+03 1.084244140625000000e+03 1.084267089843750000e+03 1.084288452148437500e+03 1.084307861328125000e+03 1.084323486328125000e+03 1.084335083007812500e+03 1.084342529296875000e+03 1.084346069335937500e+03 1.084345947265625000e+03 1.084342163085937500e+03 1.084334716796875000e+03 1.084323852539062500e+03 1.084309570312500000e+03 1.084291992187500000e+03 1.084271240234375000e+03 1.084247314453125000e+03 1.084220336914062500e+03 1.084190307617187500e+03 1.084157348632812500e+03 1.084122192382812500e+03 1.084085449218750000e+03 1.084047241210937500e+03 1.084007812500000000e+03 1.083966918945312500e+03 1.083924926757812500e+03 1.083881713867187500e+03 1.083837524414062500e+03 1.083792358398437500e+03 1.083746337890625000e+03 1.083699462890625000e+03 1.083651367187500000e+03 1.083601562500000000e+03
1.078136474609375000e+03 1.078115356445312500e+03 1.078093017578125000e+03 1.078069702148437500e+03 1.078045288085937500e+03 1.078019897460937500e+03 1.077993530273437500e+03 1.077966186523437500e+03 1.077938110351562500e+03 1.077909057617187500e+03 1.077878662109375000e+03 1.077846801757812500e+03 1.077813476562500000e+03 1.077778564453125000e+03 1.077742309570312500e+03 1.077704589843750000e+03 1.077665527343750000e+03 1.077625122070312500e+03 1.077583618164062500e+03 1.077541137695312500e+03 1.077500854492187500e+03 1.077464721679687500e+03 1.077433837890625000e+03 1.077409545898437500e+03 1.077394653320312500e+03 1.077393920898437500e+03 1.077414550781250000e+03 1.077450073242187500e+03 1.077499633789062500e+03 1.077564208984375000e+03 1.077644897460937500e+03 1.077742309570312500e+03 1.077856567382812500e+03 1.077990600585937500e+03 1.078156372070312500e+03 1.078344726562500000e+03 1.078549682617187500e+03 1.078764770507812500e+03 1.078982788085937500e+03 1.079202758789062500e+03 1.079424316406250000e+03 1.079647094726562500e+03 1.079870605468750000e+03 1.080094970703125000e+03 1.080317871093750000e+03 1.080532348632812500e+03 1.080738281250000000e+03 1.080936157226562500e+03 1.081126342773437500e+03 1.081309326171875000e+03 1.081484741210937500e+03 1.081650146484375000e+03 1.081806152343750000e+03 1.081953247070312500e+03 1.082092285156250000e+03 1.082223876953125000e+03 1.082348388671875000e+03 1.082466430664062500e+03 1.082579101562500000e+03 1.082686401367187500e+03 1.082788574218750000e+03 1.082885986328125000e+03 1.082978759765625000e+03 1.083067260742187500e+03 1.083151733398437500e+03 1.083232177734375000e+03 1.083308959960937500e+03 1.083382202148437500e+03 1.083452148437500000e+03 1.083518676757812500e+03 1.083582153320312500e+03 1.083642456054687500e+03 1.083699951171875000e+03 1.083754516601562500e+03 1.083806274414062500e+03 1.083855346679687500e+03 1.083901855468750000e+03 1.083945678710937500e+03 1.083987060546875000e+03 1.084026000976562500e+03 1.084062744140625000e+03 1.084097534179687500e+03 1.084130371093750000e+03 1.084161376953125000e+03 1.084190551757812500e+03 1.084217895507812500e+03 1.084243530273437500e+03 1.084267456054687500e+03 1.084289672851562500e+03 1.084310302734375000e+03 1.084329345703125000e+03 1.084345336914062500e+03 1.084357177734375000e+03 1.084364746093750000e+03 1.084368408203125000e+03 1.084368286132812500e+03 1.084364379882812500e+03 1.084356811523437500e+03 1.084345825195312500e+03 1.084331298828125000e+03 1.084313476562500000e+03 1.084292358398437500e+03 1.084268066406250000e+03 1.084240600585937500e+03 1.084210083007812500e+03 1.084176879882812500e+03 1.084142089843750000e+03 1.084105712890625000e+03 1.084067871093750000e+03 1.084028686523437500e+03 1.083988159179687500e+03 1.083946411132812500e+03 1.083903564453125000e+03 1.083859619140625000e+03 1.083814697265625000e+03 1.083768798828125000e+03 1.083721435546875000e+03 1.083672241210937500e+03 1.083621215820312500e+03
1.078133666992187500e+03 1.078112792968750000e+03 1.078090820312500000e+03 1.078067871093750000e+03 1.078043945312500000e+03 1.078019042968750000e+03 1.077993164062500000e+03 1.077966552734375000e+03 1.077938964843750000e+03 1.077909912109375000e+03 1.077879394531250000e+03 1.077847656250000000e+03 1.077814453125000000e+03 1.077779907226562500e+03 1.077744018554687500e+03 1.077706909179687500e+03 1.077668579101562500e+03 1.077629272460937500e+03 1.077589233398437500e+03 1.077551879882812500e+03 1.077518554687500000e+03 1.077490234375000000e+03 1.077468017578125000e+03 1.077454101562500000e+03 1.077451782226562500e+03 1.077466674804687500e+03 1.077495605468750000e+03 1.077536132812500000e+03 1.077588989257812500e+03 1.077655151367187500e+03 1.077734985351562500e+03 1.077829223632812500e+03 1.077937988281250000e+03 1.078061523437500000e+03 1.078204833984375000e+03 1.078374755859375000e+03 1.078563720703125000e+03 1.078767578125000000e+03 1.078979858398437500e+03 1.079194946289062500e+03 1.079412231445312500e+03 1.079630981445312500e+03 1.079850952148437500e+03 1.080072021484375000e+03 1.080293945312500000e+03 1.080512817382812500e+03 1.080723144531250000e+03 1.080925170898437500e+03 1.081119628906250000e+03 1.081306518554687500e+03 1.081486450195312500e+03 1.081657958984375000e+03 1.081819213867187500e+03 1.081971069335937500e+03 1.082114379882812500e+03 1.082249755859375000e+03 1.082377685546875000e+03 1.082498779296875000e+03 1.082613281250000000e+03 1.082722167968750000e+03 1.082825683593750000e+03 1.082924072265625000e+03 1.083017578125000000e+03 1.083106567382812500e+03 1.083191284179687500e+03 1.083271972656250000e+03 1.083348754882812500e+03 1.083421752929687500e+03 1.083491333007812500e+03 1.083557495117187500e+03 1.083620483398437500e+03 1.083680419921875000e+03 1.083737304687500000e+03 1.083791259765625000e+03 1.083842407226562500e+03 1.083890869140625000e+03 1.083936645507812500e+03 1.083979858398437500e+03 1.084020507812500000e+03 1.084058715820312500e+03 1.084094482421875000e+03 1.084128417968750000e+03 1.084160400390625000e+03 1.084190429687500000e+03 1.084218750000000000e+03 1.084245239257812500e+03 1.084270019531250000e+03 1.084293090820312500e+03 1.084314575195312500e+03 1.084334472656250000e+03 1.084352783203125000e+03 1.084369018554687500e+03 1.084381103515625000e+03 1.084388916015625000e+03 1.084392700195312500e+03 1.084392578125000000e+03 1.084388549804687500e+03 1.084380859375000000e+03 1.084369628906250000e+03 1.084354858398437500e+03 1.084336791992187500e+03 1.084315307617187500e+03 1.084290527343750000e+03 1.084262573242187500e+03 1.084231689453125000e+03 1.084198852539062500e+03 1.084164428710937500e+03 1.084128417968750000e+03 1.084090942382812500e+03 1.084052001953125000e+03 1.084011840820312500e+03 1.083970458984375000e+03 1.083927856445312500e+03 1.083884155273437500e+03 1.083839233398437500e+03 1.083792602539062500e+03 1.083744140625000000e+03 1.083693847656250000e+03 1.083641601562500000e+03
1.078135009765625000e+03 1.078114379882812500e+03 1.078092773437500000e+03 1.078070190429687500e+03 1.078046630859375000e+03 1.078022216796875000e+03 1.077997070312500000e+03 1.077970458984375000e+03 1.077942749023437500e+03 1.077913574218750000e+03 1.077883178710937500e+03 1.077851562500000000e+03 1.077818603515625000e+03 1.077784423828125000e+03 1.077749145507812500e+03 1.077712768554687500e+03 1.077675415039062500e+03 1.077637573242187500e+03 1.077602416992187500e+03 1.077571289062500000e+03 1.077544921875000000e+03 1.077524291992187500e+03 1.077511108398437500e+03 1.077507812500000000e+03 1.077518554687500000e+03 1.077542602539062500e+03 1.077576416015625000e+03 1.077620727539062500e+03 1.077676147460937500e+03 1.077743408203125000e+03 1.077822753906250000e+03 1.077914672851562500e+03 1.078019531250000000e+03 1.078137329101562500e+03 1.078268066406250000e+03 1.078418701171875000e+03 1.078591552734375000e+03 1.078781250000000000e+03 1.078984252929687500e+03 1.079193969726562500e+03 1.079406250000000000e+03 1.079620727539062500e+03 1.079836791992187500e+03 1.080054199218750000e+03 1.080272827148437500e+03 1.080492309570312500e+03 1.080707153320312500e+03 1.080913574218750000e+03 1.081112304687500000e+03 1.081303466796875000e+03 1.081487548828125000e+03 1.081664672851562500e+03 1.081831909179687500e+03 1.081989135742187500e+03 1.082137207031250000e+03 1.082276733398437500e+03 1.082408447265625000e+03 1.082532958984375000e+03 1.082650512695312500e+03 1.082761596679687500e+03 1.082866699218750000e+03 1.082966308593750000e+03 1.083060791015625000e+03 1.083150268554687500e+03 1.083235351562500000e+03 1.083316162109375000e+03 1.083392822265625000e+03 1.083465698242187500e+03 1.083535034179687500e+03 1.083600708007812500e+03 1.083663208007812500e+03 1.083722534179687500e+03 1.083778686523437500e+03 1.083831909179687500e+03 1.083882446289062500e+03 1.083930053710937500e+03 1.083975097656250000e+03 1.084017456054687500e+03 1.084057373046875000e+03 1.084094726562500000e+03 1.084129638671875000e+03 1.084162475585937500e+03 1.084193481445312500e+03 1.084222534179687500e+03 1.084249877929687500e+03 1.084275390625000000e+03 1.084299194335937500e+03 1.084321289062500000e+03 1.084341918945312500e+03 1.084360839843750000e+03 1.084378295898437500e+03 1.084394287109375000e+03 1.084406616210937500e+03 1.084414672851562500e+03 1.084418579101562500e+03 1.084418579101562500e+03 1.084414550781250000e+03 1.084406738281250000e+03 1.084395263671875000e+03 1.084380249023437500e+03 1.084361816406250000e+03 1.084339843750000000e+03 1.084314697265625000e+03 1.084286254882812500e+03 1.084255615234375000e+03 1.084223266601562500e+03 1.084189208984375000e+03 1.084153686523437500e+03 1.084116577148437500e+03 1.084078002929687500e+03 1.084038208007812500e+03 1.083997070312500000e+03 1.083954711914062500e+03 1.083910644531250000e+03 1.083864868164062500e+03 1.083817138671875000e+03 1.083767578125000000e+03 1.083716064453125000e+03 1.083662597656250000e+03
1.078140380859375000e+03 1.078119995117187500e+03 1.078098632812500000e+03 1.078076416015625000e+03 1.078053344726562500e+03 1.078029052734375000e+03 1.078003662109375000e+03 1.077976928710937500e+03 1.077949096679687500e+03 1.077919921875000000e+03 1.077889648437500000e+03 1.077858276367187500e+03 1.077825805664062500e+03 1.077792114257812500e+03 1.077757568359375000e+03 1.077722167968750000e+03 1.077686157226562500e+03 1.077652709960937500e+03 1.077623168945312500e+03 1.077598266601562500e+03 1.077578735351562500e+03 1.077566040039062500e+03 1.077562133789062500e+03 1.077569946289062500e+03 1.077589843750000000e+03 1.077618408203125000e+03 1.077656005859375000e+03 1.077703491210937500e+03 1.077760986328125000e+03 1.077828979492187500e+03 1.077908081054687500e+03 1.077998291015625000e+03 1.078100097656250000e+03 1.078213623046875000e+03 1.078338867187500000e+03 1.078475830078125000e+03 1.078632080078125000e+03 1.078807250976562500e+03 1.078997558593750000e+03 1.079199707031250000e+03 1.079406860351562500e+03 1.079616577148437500e+03 1.079828369140625000e+03 1.080041870117187500e+03 1.080256713867187500e+03 1.080472778320312500e+03 1.080689697265625000e+03 1.080900878906250000e+03 1.081104125976562500e+03 1.081299682617187500e+03 1.081488037109375000e+03 1.081669433593750000e+03 1.081843383789062500e+03 1.082006713867187500e+03 1.082160156250000000e+03 1.082304443359375000e+03 1.082440429687500000e+03 1.082568603515625000e+03 1.082689575195312500e+03 1.082803710937500000e+03 1.082911376953125000e+03 1.083012695312500000e+03 1.083108276367187500e+03 1.083198608398437500e+03 1.083284057617187500e+03 1.083364990234375000e+03 1.083441650390625000e+03 1.083514282226562500e+03 1.083583251953125000e+03 1.083648437500000000e+03 1.083710327148437500e+03 1.083768920898437500e+03 1.083824340820312500e+03 1.083876831054687500e+03 1.083926391601562500e+03 1.083973144531250000e+03 1.084017211914062500e+03 1.084058715820312500e+03 1.084097656250000000e+03 1.084134155273437500e+03 1.084168212890625000e+03 1.084199951171875000e+03 1.084229736328125000e+03 1.084257690429687500e+03 1.084283813476562500e+03 1.084308227539062500e+03 1.084330932617187500e+03 1.084352050781250000e+03 1.084371459960937500e+03 1.084389404296875000e+03 1.084405883789062500e+03 1.084420898437500000e+03 1.084433715820312500e+03 1.084442016601562500e+03 1.084446166992187500e+03 1.084446166992187500e+03 1.084442138671875000e+03 1.084434204101562500e+03 1.084422607421875000e+03 1.084407348632812500e+03 1.084388427734375000e+03 1.084366210937500000e+03 1.084340454101562500e+03 1.084312255859375000e+03 1.084282104492187500e+03 1.084250244140625000e+03 1.084216674804687500e+03 1.084181518554687500e+03 1.084144775390625000e+03 1.084106689453125000e+03 1.084067138671875000e+03 1.084026000976562500e+03 1.083983032226562500e+03 1.083938110351562500e+03 1.083891357421875000e+03 1.083842529296875000e+03 1.083791870117187500e+03 1.083739135742187500e+03 1.083684326171875000e+03
1.078149780273437500e+03 1.078129638671875000e+03 1.078108398437500000e+03 1.078086181640625000e+03 1.078062744140625000e+03 1.078038208007812500e+03 1.078012573242187500e+03 1.077985717773437500e+03 1.077957885742187500e+03 1.077928833007812500e+03 1.077898803710937500e+03 1.077867797851562500e+03 1.077835815429687500e+03 1.077802856445312500e+03 1.077769165039062500e+03 1.077734863281250000e+03 1.077702758789062500e+03 1.077674438476562500e+03 1.077650512695312500e+03 1.077631835937500000e+03 1.077619384765625000e+03 1.077614868164062500e+03 1.077620483398437500e+03 1.077636962890625000e+03 1.077661010742187500e+03 1.077693359375000000e+03 1.077734252929687500e+03 1.077784057617187500e+03 1.077843261718750000e+03 1.077912109375000000e+03 1.077990844726562500e+03 1.078079833984375000e+03 1.078179321289062500e+03 1.078289428710937500e+03 1.078410400390625000e+03 1.078541992187500000e+03 1.078684448242187500e+03 1.078844848632812500e+03 1.079022094726562500e+03 1.079213134765625000e+03 1.079414062500000000e+03 1.079618652343750000e+03 1.079825927734375000e+03 1.080035156250000000e+03 1.080245971679687500e+03 1.080458374023437500e+03 1.080672119140625000e+03 1.080886230468750000e+03 1.081094238281250000e+03 1.081294555664062500e+03 1.081487426757812500e+03 1.081673217773437500e+03 1.081852294921875000e+03 1.082022827148437500e+03 1.082182495117187500e+03 1.082332275390625000e+03 1.082473022460937500e+03 1.082605468750000000e+03 1.082730224609375000e+03 1.082847656250000000e+03 1.082958374023437500e+03 1.083062377929687500e+03 1.083160034179687500e+03 1.083251464843750000e+03 1.083337524414062500e+03 1.083418701171875000e+03 1.083495361328125000e+03 1.083567749023437500e+03 1.083636230468750000e+03 1.083700927734375000e+03 1.083762084960937500e+03 1.083819824218750000e+03 1.083874511718750000e+03 1.083926025390625000e+03 1.083974609375000000e+03 1.084020263671875000e+03 1.084063354492187500e+03 1.084103759765625000e+03 1.084141601562500000e+03 1.084177001953125000e+03 1.084209960937500000e+03 1.084240600585937500e+03 1.084269165039062500e+03 1.084295776367187500e+03 1.084320678710937500e+03 1.084343750000000000e+03 1.084365234375000000e+03 1.084385131835937500e+03 1.084403442382812500e+03 1.084420288085937500e+03 1.084435546875000000e+03 1.084449462890625000e+03 1.084462036132812500e+03 1.084470703125000000e+03 1.084475097656250000e+03 1.084475219726562500e+03 1.084471191406250000e+03 1.084463256835937500e+03 1.084451416015625000e+03 1.084435913085937500e+03 1.084416748046875000e+03 1.084394042968750000e+03 1.084368408203125000e+03 1.084340698242187500e+03 1.084311279296875000e+03 1.084279907226562500e+03 1.084246826171875000e+03 1.084212158203125000e+03 1.084175903320312500e+03 1.084137939453125000e+03 1.084098022460937500e+03 1.084056152343750000e+03 1.084012329101562500e+03 1.083966430664062500e+03 1.083918579101562500e+03 1.083868774414062500e+03 1.083816894531250000e+03 1.083762939453125000e+03 1.083706787109375000e+03
1.078163085937500000e+03 1.078142456054687500e+03 1.078120849609375000e+03 1.078098144531250000e+03 1.078074340820312500e+03 1.078049560546875000e+03 1.078023681640625000e+03 1.077996948242187500e+03 1.077968994140625000e+03 1.077940307617187500e+03 1.077910522460937500e+03 1.077879882812500000e+03 1.077848510742187500e+03 1.077816406250000000e+03 1.077783813476562500e+03 1.077752563476562500e+03 1.077725097656250000e+03 1.077701904296875000e+03 1.077683837890625000e+03 1.077671508789062500e+03 1.077666381835937500e+03 1.077670288085937500e+03 1.077683715820312500e+03 1.077703979492187500e+03 1.077731689453125000e+03 1.077767089843750000e+03 1.077810668945312500e+03 1.077862548828125000e+03 1.077923095703125000e+03 1.077992553710937500e+03 1.078071166992187500e+03 1.078159179687500000e+03 1.078256835937500000e+03 1.078364379882812500e+03 1.078481689453125000e+03 1.078609130859375000e+03 1.078746337890625000e+03 1.078893798828125000e+03 1.079057617187500000e+03 1.079236572265625000e+03 1.079428344726562500e+03 1.079627441406250000e+03 1.079829589843750000e+03 1.080034301757812500e+03 1.080240966796875000e+03 1.080449340820312500e+03 1.080659301757812500e+03 1.080870483398437500e+03 1.081082153320312500e+03 1.081287353515625000e+03 1.081485107421875000e+03 1.081675659179687500e+03 1.081859252929687500e+03 1.082036132812500000e+03 1.082203247070312500e+03 1.082359497070312500e+03 1.082505859375000000e+03 1.082643066406250000e+03 1.082772094726562500e+03 1.082893310546875000e+03 1.083007324218750000e+03 1.083114379882812500e+03 1.083214721679687500e+03 1.083308471679687500e+03 1.083395874023437500e+03 1.083477539062500000e+03 1.083554199218750000e+03 1.083626342773437500e+03 1.083694335937500000e+03 1.083758422851562500e+03 1.083818725585937500e+03 1.083875610351562500e+03 1.083929199218750000e+03 1.083979614257812500e+03 1.084027099609375000e+03 1.084071655273437500e+03 1.084113525390625000e+03 1.084152709960937500e+03 1.084189331054687500e+03 1.084223510742187500e+03 1.084255249023437500e+03 1.084284667968750000e+03 1.084311767578125000e+03 1.084337036132812500e+03 1.084360473632812500e+03 1.084382202148437500e+03 1.084402221679687500e+03 1.084420776367187500e+03 1.084437744140625000e+03 1.084453247070312500e+03 1.084467285156250000e+03 1.084479980468750000e+03 1.084491333007812500e+03 1.084500488281250000e+03 1.084505126953125000e+03 1.084505493164062500e+03 1.084501586914062500e+03 1.084493652343750000e+03 1.084481689453125000e+03 1.084465820312500000e+03 1.084446289062500000e+03 1.084423583984375000e+03 1.084398803710937500e+03 1.084371948242187500e+03 1.084343017578125000e+03 1.084312377929687500e+03 1.084279785156250000e+03 1.084245483398437500e+03 1.084209106445312500e+03 1.084170532226562500e+03 1.084130004882812500e+03 1.084087280273437500e+03 1.084042602539062500e+03 1.083995727539062500e+03 1.083946899414062500e+03 1.083895874023437500e+03 1.083842773437500000e+03 1.083787475585937500e+03 1.083729980468750000e+03
1.078178466796875000e+03 1.078157348632812500e+03 1.078135253906250000e+03 1.078112060546875000e+03 1.078088012695312500e+03 1.078063110351562500e+03 1.078037109375000000e+03 1.078010253906250000e+03 1.077982543945312500e+03 1.077954101562500000e+03 1.077924682617187500e+03 1.077894653320312500e+03 1.077864013671875000e+03 1.077832885742187500e+03 1.077802246093750000e+03 1.077775268554687500e+03 1.077752563476562500e+03 1.077734741210937500e+03 1.077722412109375000e+03 1.077716796875000000e+03 1.077719238281250000e+03 1.077729980468750000e+03 1.077746826171875000e+03 1.077770507812500000e+03 1.077801269531250000e+03 1.077839355468750000e+03 1.077885131835937500e+03 1.077938720703125000e+03 1.078000366210937500e+03 1.078070434570312500e+03 1.078148925781250000e+03 1.078236328125000000e+03 1.078332519531250000e+03 1.078437866210937500e+03 1.078552368164062500e+03 1.078676269531250000e+03 1.078809448242187500e+03 1.078951904296875000e+03 1.079103759765625000e+03 1.079270507812500000e+03 1.079451171875000000e+03 1.079643188476562500e+03 1.079839965820312500e+03 1.080039672851562500e+03 1.080241821289062500e+03 1.080446044921875000e+03 1.080651977539062500e+03 1.080859375000000000e+03 1.081068237304687500e+03 1.081277465820312500e+03 1.081480346679687500e+03 1.081675903320312500e+03 1.081864379882812500e+03 1.082046020507812500e+03 1.082220825195312500e+03 1.082384887695312500e+03 1.082537841796875000e+03 1.082680786132812500e+03 1.082814697265625000e+03 1.082940307617187500e+03 1.083058105468750000e+03 1.083168457031250000e+03 1.083271728515625000e+03 1.083368164062500000e+03 1.083457641601562500e+03 1.083540771484375000e+03 1.083618164062500000e+03 1.083690307617187500e+03 1.083757812500000000e+03 1.083821044921875000e+03 1.083880493164062500e+03 1.083936279296875000e+03 1.083988769531250000e+03 1.084037963867187500e+03 1.084084106445312500e+03 1.084127319335937500e+03 1.084167724609375000e+03 1.084205566406250000e+03 1.084240722656250000e+03 1.084273437500000000e+03 1.084303833007812500e+03 1.084331909179687500e+03 1.084357666015625000e+03 1.084381347656250000e+03 1.084403198242187500e+03 1.084423339843750000e+03 1.084441772460937500e+03 1.084458740234375000e+03 1.084474243164062500e+03 1.084488281250000000e+03 1.084500854492187500e+03 1.084512207031250000e+03 1.084522216796875000e+03 1.084530883789062500e+03 1.084536010742187500e+03 1.084536621093750000e+03 1.084532958984375000e+03 1.084524902343750000e+03 1.084512939453125000e+03 1.084496826171875000e+03 1.084477539062500000e+03 1.084455810546875000e+03 1.084431884765625000e+03 1.084405761718750000e+03 1.084377685546875000e+03 1.084347412109375000e+03 1.084314941406250000e+03 1.084280273437500000e+03 1.084243286132812500e+03 1.084204223632812500e+03 1.084162963867187500e+03 1.084119506835937500e+03 1.084073852539062500e+03 1.084026123046875000e+03 1.083976074218750000e+03 1.083923950195312500e+03 1.083869506835937500e+03 1.083812866210937500e+03 1.083753906250000000e+03
1.078195800781250000e+03 1.078174072265625000e+03 1.078151489257812500e+03 1.078128051757812500e+03 1.078103759765625000e+03 1.078078613281250000e+03 1.078052734375000000e+03 1.078025878906250000e+03 1.077998413085937500e+03 1.077970214843750000e+03 1.077941406250000000e+03 1.077911987304687500e+03 1.077882202148437500e+03 1.077852416992187500e+03 1.077825561523437500e+03 1.077802856445312500e+03 1.077784912109375000e+03 1.077772338867187500e+03 1.077765991210937500e+03 1.077767211914062500e+03 1.077775390625000000e+03 1.077789306640625000e+03 1.077809448242187500e+03 1.077836059570312500e+03 1.077869506835937500e+03 1.077909912109375000e+03 1.077957519531250000e+03 1.078012573242187500e+03 1.078075195312500000e+03 1.078145751953125000e+03 1.078224243164062500e+03 1.078311035156250000e+03 1.078406127929687500e+03 1.078509765625000000e+03 1.078621948242187500e+03 1.078743041992187500e+03 1.078872802734375000e+03 1.079011352539062500e+03 1.079158691406250000e+03 1.079314697265625000e+03 1.079484008789062500e+03 1.079666259765625000e+03 1.079857299804687500e+03 1.080051757812500000e+03 1.080249145507812500e+03 1.080448852539062500e+03 1.080650390625000000e+03 1.080853881835937500e+03 1.081058837890625000e+03 1.081265258789062500e+03 1.081472167968750000e+03 1.081673217773437500e+03 1.081866943359375000e+03 1.082053710937500000e+03 1.082233886718750000e+03 1.082406616210937500e+03 1.082567749023437500e+03 1.082717651367187500e+03 1.082857543945312500e+03 1.082988159179687500e+03 1.083110229492187500e+03 1.083224487304687500e+03 1.083331176757812500e+03 1.083430541992187500e+03 1.083522460937500000e+03 1.083607299804687500e+03 1.083685913085937500e+03 1.083758666992187500e+03 1.083826293945312500e+03 1.083889160156250000e+03 1.083947753906250000e+03 1.084002319335937500e+03 1.084053344726562500e+03 1.084101196289062500e+03 1.084145751953125000e+03 1.084187377929687500e+03 1.084226318359375000e+03 1.084262451171875000e+03 1.084296020507812500e+03 1.084327148437500000e+03 1.084355957031250000e+03 1.084382446289062500e+03 1.084406616210937500e+03 1.084428710937500000e+03 1.084448730468750000e+03 1.084467163085937500e+03 1.084483886718750000e+03 1.084499145507812500e+03 1.084512939453125000e+03 1.084525268554687500e+03 1.084536254882812500e+03 1.084546020507812500e+03 1.084554443359375000e+03 1.084561767578125000e+03 1.084567260742187500e+03 1.084568359375000000e+03 1.084564941406250000e+03 1.084557006835937500e+03 1.084544921875000000e+03 1.084529296875000000e+03 1.084511230468750000e+03 1.084490600585937500e+03 1.084467651367187500e+03 1.084442138671875000e+03 1.084414184570312500e+03 1.084383911132812500e+03 1.084351196289062500e+03 1.084316162109375000e+03 1.084278686523437500e+03 1.084239013671875000e+03 1.084197143554687500e+03 1.084152832031250000e+03 1.084106323242187500e+03 1.084057495117187500e+03 1.084006347656250000e+03 1.083952880859375000e+03 1.083897094726562500e+03 1.083838989257812500e+03 1.083778442382812500e+03
1.078214965820312500e+03 1.078192749023437500e+03 1.078169799804687500e+03 1.078145996093750000e+03 1.078121459960937500e+03 1.078096313476562500e+03 1.078070312500000000e+03 1.078043701171875000e+03 1.078016479492187500e+03 1.077988769531250000e+03 1.077960571289062500e+03 1.077931884765625000e+03 1.077903076171875000e+03 1.077875976562500000e+03 1.077853027343750000e+03 1.077834716796875000e+03 1.077821655273437500e+03 1.077814575195312500e+03 1.077814453125000000e+03 1.077820068359375000e+03 1.077831176757812500e+03 1.077848144531250000e+03 1.077871093750000000e+03 1.077900390625000000e+03 1.077936157226562500e+03 1.077978515625000000e+03 1.078027709960937500e+03 1.078084106445312500e+03 1.078147583007812500e+03 1.078218627929687500e+03 1.078297119140625000e+03 1.078383422851562500e+03 1.078477661132812500e+03 1.078579833984375000e+03 1.078690185546875000e+03 1.078808837890625000e+03 1.078935791015625000e+03 1.079071166992187500e+03 1.079214843750000000e+03 1.079366821289062500e+03 1.079526977539062500e+03 1.079698608398437500e+03 1.079882080078125000e+03 1.080071044921875000e+03 1.080263183593750000e+03 1.080458007812500000e+03 1.080655151367187500e+03 1.080854370117187500e+03 1.081055175781250000e+03 1.081257690429687500e+03 1.081461547851562500e+03 1.081666503906250000e+03 1.081865966796875000e+03 1.082058349609375000e+03 1.082243896484375000e+03 1.082422729492187500e+03 1.082593627929687500e+03 1.082752197265625000e+03 1.082899291992187500e+03 1.083036132812500000e+03 1.083163452148437500e+03 1.083282104492187500e+03 1.083392700195312500e+03 1.083495361328125000e+03 1.083590332031250000e+03 1.083677490234375000e+03 1.083757324218750000e+03 1.083830810546875000e+03 1.083898803710937500e+03 1.083961547851562500e+03 1.084019531250000000e+03 1.084073364257812500e+03 1.084123168945312500e+03 1.084169433593750000e+03 1.084212280273437500e+03 1.084252197265625000e+03 1.084289184570312500e+03 1.084323486328125000e+03 1.084355224609375000e+03 1.084384521484375000e+03 1.084411499023437500e+03 1.084436157226562500e+03 1.084458618164062500e+03 1.084479003906250000e+03 1.084497314453125000e+03 1.084513671875000000e+03 1.084528442382812500e+03 1.084541748046875000e+03 1.084553710937500000e+03 1.084564208984375000e+03 1.084573364257812500e+03 1.084581420898437500e+03 1.084588134765625000e+03 1.084593750000000000e+03 1.084598388671875000e+03 1.084600097656250000e+03 1.084597045898437500e+03 1.084589355468750000e+03 1.084578125000000000e+03 1.084563964843750000e+03 1.084546997070312500e+03 1.084527221679687500e+03 1.084504638671875000e+03 1.084479492187500000e+03 1.084451660156250000e+03 1.084421386718750000e+03 1.084388549804687500e+03 1.084353149414062500e+03 1.084315307617187500e+03 1.084275146484375000e+03 1.084232421875000000e+03 1.084187377929687500e+03 1.084139892578125000e+03 1.084089965820312500e+03 1.084037597656250000e+03 1.083982910156250000e+03 1.083925659179687500e+03 1.083865966796875000e+03 1.083803710937500000e+03
1.078235839843750000e+03 1.078213134765625000e+03 1.078189819335937500e+03 1.078165771484375000e+03 1.078141113281250000e+03 1.078115844726562500e+03 1.078089965820312500e+03 1.078063598632812500e+03 1.078036743164062500e+03 1.078009521484375000e+03 1.077982055664062500e+03 1.077954345703125000e+03 1.077927124023437500e+03 1.077903564453125000e+03 1.077884643554687500e+03 1.077870849609375000e+03 1.077862670898437500e+03 1.077860961914062500e+03 1.077864013671875000e+03 1.077872436523437500e+03 1.077886352539062500e+03 1.077906005859375000e+03 1.077931518554687500e+03 1.077963134765625000e+03 1.078000976562500000e+03 1.078045043945312500e+03 1.078095825195312500e+03 1.078153198242187500e+03 1.078217529296875000e+03 1.078288940429687500e+03 1.078367553710937500e+03 1.078453491210937500e+03 1.078546997070312500e+03 1.078648071289062500e+03 1.078756835937500000e+03 1.078873535156250000e+03 1.078998168945312500e+03 1.079130737304687500e+03 1.079271362304687500e+03 1.079420043945312500e+03 1.079576660156250000e+03 1.079740966796875000e+03 1.079915039062500000e+03 1.080097900390625000e+03 1.080284545898437500e+03 1.080474243164062500e+03 1.080666748046875000e+03 1.080861328125000000e+03 1.081057861328125000e+03 1.081256103515625000e+03 1.081456054687500000e+03 1.081657470703125000e+03 1.081860229492187500e+03 1.082058715820312500e+03 1.082250122070312500e+03 1.082434692382812500e+03 1.082612548828125000e+03 1.082782104492187500e+03 1.082938476562500000e+03 1.083083007812500000e+03 1.083216796875000000e+03 1.083340942382812500e+03 1.083456054687500000e+03 1.083562744140625000e+03 1.083661010742187500e+03 1.083750976562500000e+03 1.083832519531250000e+03 1.083906982421875000e+03 1.083975219726562500e+03 1.084037719726562500e+03 1.084095214843750000e+03 1.084148193359375000e+03 1.084196899414062500e+03 1.084241821289062500e+03 1.084283203125000000e+03 1.084321411132812500e+03 1.084356445312500000e+03 1.084388793945312500e+03 1.084418457031250000e+03 1.084445678710937500e+03 1.084470458984375000e+03 1.084493041992187500e+03 1.084513549804687500e+03 1.084531860351562500e+03 1.084548217773437500e+03 1.084562622070312500e+03 1.084575317382812500e+03 1.084586547851562500e+03 1.084596313476562500e+03 1.084604736328125000e+03 1.084611938476562500e+03 1.084618041992187500e+03 1.084622802734375000e+03 1.084626586914062500e+03 1.084629394531250000e+03 1.084630859375000000e+03 1.084628295898437500e+03 1.084621948242187500e+03 1.084612182617187500e+03 1.084599365234375000e+03 1.084583374023437500e+03 1.084564331054687500e+03 1.084542480468750000e+03 1.084517700195312500e+03 1.084490234375000000e+03 1.084459960937500000e+03 1.084427001953125000e+03 1.084391479492187500e+03 1.084353271484375000e+03 1.084312377929687500e+03 1.084269042968750000e+03 1.084223144531250000e+03 1.084174682617187500e+03 1.084123657226562500e+03 1.084070068359375000e+03 1.084013793945312500e+03 1.083955078125000000e+03 1.083893676757812500e+03 1.083829589843750000e+03
1.078258300781250000e+03 1.078235229492187500e+03 1.078211547851562500e+03 1.078187377929687500e+03 1.078162597656250000e+03 1.078137329101562500e+03 1.078111694335937500e+03 1.078085693359375000e+03 1.078059204101562500e+03 1.078032592773437500e+03 1.078005981445312500e+03 1.077979248046875000e+03 1.077954833984375000e+03 1.077934936523437500e+03 1.077920043945312500e+03 1.077910766601562500e+03 1.077906982421875000e+03 1.077907470703125000e+03 1.077913208007812500e+03 1.077924194335937500e+03 1.077940673828125000e+03 1.077962768554687500e+03 1.077990478515625000e+03 1.078024169921875000e+03 1.078063842773437500e+03 1.078109497070312500e+03 1.078161499023437500e+03 1.078219970703125000e+03 1.078285034179687500e+03 1.078356811523437500e+03 1.078435424804687500e+03 1.078521240234375000e+03 1.078614135742187500e+03 1.078714233398437500e+03 1.078821777343750000e+03 1.078936889648437500e+03 1.079059448242187500e+03 1.079189819335937500e+03 1.079327880859375000e+03 1.079473632812500000e+03 1.079627197265625000e+03 1.079788330078125000e+03 1.079957031250000000e+03 1.080132934570312500e+03 1.080313720703125000e+03 1.080498046875000000e+03 1.080685424804687500e+03 1.080875366210937500e+03 1.081067382812500000e+03 1.081261352539062500e+03 1.081456909179687500e+03 1.081654174804687500e+03 1.081853027343750000e+03 1.082053344726562500e+03 1.082251342773437500e+03 1.082442260742187500e+03 1.082626342773437500e+03 1.082803588867187500e+03 1.082972167968750000e+03 1.083126831054687500e+03 1.083268920898437500e+03 1.083399780273437500e+03 1.083520629882812500e+03 1.083632080078125000e+03 1.083734497070312500e+03 1.083827880859375000e+03 1.083911865234375000e+03 1.083987426757812500e+03 1.084055908203125000e+03 1.084118164062500000e+03 1.084174926757812500e+03 1.084226684570312500e+03 1.084274047851562500e+03 1.084317382812500000e+03 1.084357055664062500e+03 1.084393310546875000e+03 1.084426391601562500e+03 1.084456665039062500e+03 1.084484252929687500e+03 1.084509399414062500e+03 1.084532104492187500e+03 1.084552490234375000e+03 1.084570800781250000e+03 1.084587036132812500e+03 1.084601196289062500e+03 1.084613525390625000e+03 1.084624023437500000e+03 1.084632812500000000e+03 1.084640258789062500e+03 1.084646362304687500e+03 1.084651245117187500e+03 1.084654907226562500e+03 1.084657470703125000e+03 1.084658935546875000e+03 1.084659301757812500e+03 1.084658813476562500e+03 1.084658081054687500e+03 1.084653808593750000e+03 1.084645874023437500e+03 1.084634643554687500e+03 1.084619995117187500e+03 1.084602050781250000e+03 1.084581054687500000e+03 1.084556884765625000e+03 1.084529785156250000e+03 1.084499755859375000e+03 1.084466796875000000e+03 1.084431030273437500e+03 1.084392456054687500e+03 1.084351196289062500e+03 1.084307128906250000e+03 1.084260253906250000e+03 1.084210693359375000e+03 1.084158447265625000e+03 1.084103515625000000e+03 1.084045776367187500e+03 1.083985351562500000e+03 1.083922119140625000e+03 1.083855957031250000e+03
1.078282470703125000e+03 1.078258911132812500e+03 1.078234985351562500e+03 1.078210693359375000e+03 1.078185913085937500e+03 1.078160766601562500e+03 1.078135375976562500e+03 1.078109619140625000e+03 1.078083862304687500e+03 1.078057983398437500e+03 1.078032226562500000e+03 1.078007080078125000e+03 1.077985961914062500e+03 1.077969848632812500e+03 1.077958984375000000e+03 1.077952514648437500e+03 1.077950561523437500e+03 1.077953613281250000e+03 1.077961669921875000e+03 1.077975097656250000e+03 1.077993896484375000e+03 1.078018066406250000e+03 1.078047851562500000e+03 1.078083374023437500e+03 1.078124633789062500e+03 1.078171752929687500e+03 1.078224975585937500e+03 1.078284301757812500e+03 1.078349975585937500e+03 1.078422241210937500e+03 1.078500976562500000e+03 1.078586547851562500e+03 1.078678955078125000e+03 1.078778442382812500e+03 1.078884887695312500e+03 1.078998657226562500e+03 1.079119628906250000e+03 1.079248046875000000e+03 1.079383911132812500e+03 1.079527221679687500e+03 1.079678100585937500e+03 1.079836547851562500e+03 1.080002441406250000e+03 1.080175537109375000e+03 1.080351562500000000e+03 1.080530151367187500e+03 1.080712158203125000e+03 1.080896972656250000e+03 1.081084228515625000e+03 1.081273681640625000e+03 1.081464965820312500e+03 1.081657958984375000e+03 1.081852416992187500e+03 1.082048583984375000e+03 1.082246215820312500e+03 1.082443603515625000e+03 1.082634643554687500e+03 1.082818603515625000e+03 1.082995849609375000e+03 1.083164062500000000e+03 1.083317382812500000e+03 1.083457397460937500e+03 1.083585449218750000e+03 1.083702880859375000e+03 1.083810180664062500e+03 1.083907714843750000e+03 1.083995239257812500e+03 1.084072265625000000e+03 1.084141113281250000e+03 1.084203002929687500e+03 1.084258789062500000e+03 1.084309204101562500e+03 1.084354858398437500e+03 1.084396118164062500e+03 1.084433593750000000e+03 1.084467651367187500e+03 1.084498413085937500e+03 1.084526367187500000e+03 1.084551513671875000e+03 1.084574096679687500e+03 1.084594360351562500e+03 1.084612426757812500e+03 1.084628295898437500e+03 1.084642089843750000e+03 1.084653930664062500e+03 1.084663940429687500e+03 1.084672119140625000e+03 1.084678466796875000e+03 1.084683349609375000e+03 1.084686767578125000e+03 1.084689086914062500e+03 1.084690063476562500e+03 1.084690063476562500e+03 1.084688842773437500e+03 1.084687377929687500e+03 1.084686401367187500e+03 1.084686035156250000e+03 1.084684448242187500e+03 1.084678955078125000e+03 1.084669677734375000e+03 1.084656616210937500e+03 1.084640136718750000e+03 1.084620239257812500e+03 1.084596923828125000e+03 1.084570434570312500e+03 1.084540771484375000e+03 1.084507934570312500e+03 1.084472045898437500e+03 1.084433227539062500e+03 1.084391357421875000e+03 1.084346557617187500e+03 1.084298828125000000e+03 1.084248168945312500e+03 1.084194580078125000e+03 1.084138183593750000e+03 1.084078735351562500e+03 1.084016479492187500e+03 1.083951049804687500e+03 1.083882812500000000e+03
1.078307983398437500e+03 1.078284179687500000e+03 1.078260009765625000e+03 1.078235595703125000e+03 1.078210937500000000e+03 1.078185913085937500e+03 1.078160888671875000e+03 1.078135742187500000e+03 1.078110595703125000e+03 1.078085571289062500e+03 1.078060791015625000e+03 1.078038208007812500e+03 1.078020507812500000e+03 1.078007202148437500e+03 1.077997924804687500e+03 1.077993408203125000e+03 1.077993774414062500e+03 1.077999145507812500e+03 1.078009521484375000e+03 1.078025024414062500e+03 1.078045776367187500e+03 1.078071899414062500e+03 1.078103515625000000e+03 1.078140625000000000e+03 1.078183349609375000e+03 1.078231689453125000e+03 1.078286010742187500e+03 1.078346313476562500e+03 1.078412597656250000e+03 1.078485107421875000e+03 1.078564086914062500e+03 1.078649536132812500e+03 1.078741577148437500e+03 1.078840454101562500e+03 1.078946166992187500e+03 1.079058715820312500e+03 1.079178344726562500e+03 1.079305175781250000e+03 1.079439208984375000e+03 1.079580444335937500e+03 1.079729125976562500e+03 1.079885131835937500e+03 1.080048461914062500e+03 1.080219116210937500e+03 1.080394897460937500e+03 1.080570800781250000e+03 1.080747436523437500e+03 1.080927001953125000e+03 1.081109252929687500e+03 1.081293945312500000e+03 1.081480712890625000e+03 1.081669189453125000e+03 1.081859375000000000e+03 1.082051147460937500e+03 1.082244384765625000e+03 1.082439086914062500e+03 1.082635253906250000e+03 1.082826904296875000e+03 1.083011474609375000e+03 1.083189086914062500e+03 1.083357788085937500e+03 1.083510498046875000e+03 1.083648681640625000e+03 1.083774047851562500e+03 1.083887695312500000e+03 1.083990478515625000e+03 1.084082153320312500e+03 1.084161865234375000e+03 1.084231323242187500e+03 1.084292724609375000e+03 1.084347290039062500e+03 1.084395874023437500e+03 1.084439331054687500e+03 1.084478149414062500e+03 1.084512939453125000e+03 1.084544189453125000e+03 1.084572143554687500e+03 1.084597167968750000e+03 1.084619506835937500e+03 1.084639282226562500e+03 1.084656738281250000e+03 1.084671997070312500e+03 1.084685058593750000e+03 1.084696166992187500e+03 1.084705444335937500e+03 1.084712890625000000e+03 1.084718383789062500e+03 1.084722290039062500e+03 1.084724487304687500e+03 1.084725097656250000e+03 1.084724487304687500e+03 1.084722656250000000e+03 1.084719970703125000e+03 1.084717529296875000e+03 1.084715698242187500e+03 1.084714233398437500e+03 1.084713500976562500e+03 1.084713256835937500e+03 1.084710693359375000e+03 1.084703979492187500e+03 1.084693115234375000e+03 1.084678344726562500e+03 1.084659912109375000e+03 1.084637817382812500e+03 1.084612060546875000e+03 1.084583007812500000e+03 1.084550415039062500e+03 1.084514526367187500e+03 1.084475463867187500e+03 1.084433105468750000e+03 1.084387573242187500e+03 1.084338867187500000e+03 1.084286987304687500e+03 1.084232055664062500e+03 1.084173950195312500e+03 1.084112670898437500e+03 1.084048217773437500e+03 1.083980590820312500e+03 1.083909912109375000e+03
1.078334838867187500e+03 1.078310791015625000e+03 1.078286499023437500e+03 1.078262084960937500e+03 1.078237548828125000e+03 1.078212890625000000e+03 1.078188232421875000e+03 1.078163696289062500e+03 1.078139282226562500e+03 1.078115234375000000e+03 1.078091918945312500e+03 1.078071777343750000e+03 1.078055541992187500e+03 1.078043701171875000e+03 1.078036499023437500e+03 1.078034057617187500e+03 1.078036499023437500e+03 1.078043945312500000e+03 1.078056274414062500e+03 1.078073730468750000e+03 1.078096313476562500e+03 1.078124145507812500e+03 1.078157348632812500e+03 1.078195922851562500e+03 1.078239868164062500e+03 1.078289428710937500e+03 1.078344726562500000e+03 1.078405761718750000e+03 1.078472778320312500e+03 1.078545654296875000e+03 1.078624755859375000e+03 1.078710205078125000e+03 1.078802001953125000e+03 1.078900390625000000e+03 1.079005371093750000e+03 1.079117065429687500e+03 1.079235717773437500e+03 1.079361083984375000e+03 1.079493652343750000e+03 1.079633178710937500e+03 1.079779907226562500e+03 1.079933837890625000e+03 1.080094970703125000e+03 1.080263427734375000e+03 1.080438354492187500e+03 1.080614257812500000e+03 1.080790161132812500e+03 1.080966064453125000e+03 1.081143188476562500e+03 1.081322875976562500e+03 1.081504882812500000e+03 1.081688842773437500e+03 1.081874511718750000e+03 1.082061767578125000e+03 1.082250610351562500e+03 1.082440917968750000e+03 1.082632690429687500e+03 1.082826049804687500e+03 1.083018798828125000e+03 1.083204711914062500e+03 1.083383300781250000e+03 1.083553466796875000e+03 1.083706542968750000e+03 1.083843261718750000e+03 1.083965698242187500e+03 1.084075317382812500e+03 1.084172485351562500e+03 1.084256225585937500e+03 1.084326660156250000e+03 1.084387573242187500e+03 1.084440429687500000e+03 1.084486694335937500e+03 1.084527343750000000e+03 1.084563110351562500e+03 1.084594726562500000e+03 1.084622558593750000e+03 1.084647094726562500e+03 1.084668701171875000e+03 1.084687622070312500e+03 1.084704101562500000e+03 1.084718261718750000e+03 1.084730224609375000e+03 1.084740234375000000e+03 1.084748413085937500e+03 1.084754638671875000e+03 1.084759155273437500e+03 1.084761840820312500e+03 1.084762939453125000e+03 1.084762329101562500e+03 1.084760131835937500e+03 1.084756469726562500e+03 1.084752807617187500e+03 1.084749511718750000e+03 1.084746704101562500e+03 1.084744384765625000e+03 1.084742553710937500e+03 1.084741333007812500e+03 1.084740722656250000e+03 1.084740478515625000e+03 1.084736938476562500e+03 1.084728881835937500e+03 1.084716430664062500e+03 1.084699951171875000e+03 1.084679321289062500e+03 1.084654785156250000e+03 1.084626464843750000e+03 1.084594360351562500e+03 1.084558593750000000e+03 1.084519409179687500e+03 1.084476562500000000e+03 1.084430297851562500e+03 1.084380493164062500e+03 1.084327392578125000e+03 1.084270874023437500e+03 1.084210815429687500e+03 1.084147460937500000e+03 1.084080688476562500e+03 1.084010620117187500e+03 1.083937011718750000e+03
1.078362792968750000e+03 1.078338623046875000e+03 1.078314331054687500e+03 1.078290039062500000e+03 1.078265747070312500e+03 1.078241455078125000e+03 1.078217407226562500e+03 1.078193603515625000e+03 1.078170166015625000e+03 1.078146606445312500e+03 1.078123535156250000e+03 1.078104370117187500e+03 1.078089843750000000e+03 1.078079833984375000e+03 1.078074584960937500e+03 1.078074218750000000e+03 1.078078491210937500e+03 1.078087768554687500e+03 1.078101928710937500e+03 1.078121093750000000e+03 1.078145385742187500e+03 1.078174804687500000e+03 1.078209350585937500e+03 1.078249145507812500e+03 1.078294311523437500e+03 1.078344970703125000e+03 1.078401123046875000e+03 1.078462890625000000e+03 1.078530395507812500e+03 1.078603759765625000e+03 1.078683105468750000e+03 1.078768554687500000e+03 1.078860229492187500e+03 1.078958251953125000e+03 1.079062744140625000e+03 1.079173706054687500e+03 1.079291381835937500e+03 1.079415771484375000e+03 1.079546997070312500e+03 1.079685058593750000e+03 1.079830200195312500e+03 1.079982421875000000e+03 1.080141723632812500e+03 1.080308227539062500e+03 1.080481689453125000e+03 1.080657714843750000e+03 1.080833618164062500e+03 1.081009521484375000e+03 1.081185424804687500e+03 1.081361450195312500e+03 1.081538452148437500e+03 1.081717651367187500e+03 1.081898803710937500e+03 1.082081665039062500e+03 1.082265991210937500e+03 1.082451660156250000e+03 1.082638916015625000e+03 1.082827514648437500e+03 1.083017578125000000e+03 1.083209472656250000e+03 1.083397460937500000e+03 1.083578125000000000e+03 1.083750610351562500e+03 1.083905639648437500e+03 1.084041381835937500e+03 1.084160888671875000e+03 1.084265502929687500e+03 1.084354980468750000e+03 1.084427612304687500e+03 1.084487915039062500e+03 1.084538696289062500e+03 1.084581909179687500e+03 1.084618896484375000e+03 1.084650756835937500e+03 1.084678100585937500e+03 1.084701782226562500e+03 1.084722167968750000e+03 1.084739746093750000e+03 1.084754638671875000e+03 1.084767211914062500e+03 1.084777587890625000e+03 1.084786010742187500e+03 1.084792480468750000e+03 1.084797241210937500e+03 1.084800170898437500e+03 1.084801391601562500e+03 1.084801025390625000e+03 1.084799072265625000e+03 1.084795532226562500e+03 1.084791503906250000e+03 1.084787475585937500e+03 1.084783447265625000e+03 1.084779785156250000e+03 1.084776489257812500e+03 1.084773681640625000e+03 1.084771484375000000e+03 1.084769653320312500e+03 1.084768554687500000e+03 1.084767944335937500e+03 1.084767578125000000e+03 1.084763061523437500e+03 1.084753784179687500e+03 1.084739746093750000e+03 1.084721191406250000e+03 1.084698242187500000e+03 1.084671142578125000e+03 1.084639770507812500e+03 1.084604370117187500e+03 1.084565063476562500e+03 1.084521850585937500e+03 1.084474731445312500e+03 1.084423950195312500e+03 1.084369262695312500e+03 1.084310913085937500e+03 1.084248901367187500e+03 1.084183105468750000e+03 1.084113647460937500e+03 1.084040527343750000e+03 1.083963745117187500e+03
1.078391845703125000e+03 1.078367553710937500e+03 1.078343383789062500e+03 1.078319335937500000e+03 1.078295288085937500e+03 1.078271606445312500e+03 1.078248046875000000e+03 1.078224365234375000e+03 1.078200317382812500e+03 1.078176269531250000e+03 1.078154296875000000e+03 1.078136718750000000e+03 1.078123901367187500e+03 1.078115722656250000e+03 1.078112304687500000e+03 1.078113525390625000e+03 1.078119628906250000e+03 1.078130615234375000e+03 1.078146362304687500e+03 1.078167114257812500e+03 1.078192871093750000e+03 1.078223632812500000e+03 1.078259399414062500e+03 1.078300415039062500e+03 1.078346679687500000e+03 1.078398315429687500e+03 1.078455200195312500e+03 1.078517700195312500e+03 1.078585693359375000e+03 1.078659423828125000e+03 1.078739013671875000e+03 1.078824462890625000e+03 1.078916137695312500e+03 1.079013916015625000e+03 1.079118041992187500e+03 1.079228515625000000e+03 1.079345458984375000e+03 1.079468994140625000e+03 1.079599121093750000e+03 1.079736083984375000e+03 1.079879882812500000e+03 1.080030639648437500e+03 1.080188354492187500e+03 1.080353271484375000e+03 1.080525146484375000e+03 1.080701049804687500e+03 1.080877075195312500e+03 1.081052978515625000e+03 1.081228881835937500e+03 1.081404785156250000e+03 1.081580810546875000e+03 1.081756713867187500e+03 1.081933227539062500e+03 1.082111450195312500e+03 1.082291381835937500e+03 1.082472656250000000e+03 1.082655273437500000e+03 1.082839111328125000e+03 1.083024414062500000e+03 1.083211059570312500e+03 1.083399291992187500e+03 1.083588867187500000e+03 1.083772583007812500e+03 1.083948120117187500e+03 1.084107788085937500e+03 1.084243652343750000e+03 1.084359741210937500e+03 1.084457519531250000e+03 1.084534545898437500e+03 1.084594116210937500e+03 1.084641967773437500e+03 1.084681030273437500e+03 1.084713134765625000e+03 1.084739746093750000e+03 1.084761840820312500e+03 1.084780395507812500e+03 1.084795776367187500e+03 1.084808349609375000e+03 1.084818603515625000e+03 1.084826782226562500e+03 1.084832885742187500e+03 1.084837158203125000e+03 1.084839721679687500e+03 1.084840698242187500e+03 1.084840087890625000e+03 1.084837890625000000e+03 1.084834228515625000e+03 1.084830322265625000e+03 1.084826416015625000e+03 1.084822509765625000e+03 1.084818603515625000e+03 1.084814697265625000e+03 1.084810668945312500e+03 1.084807006835937500e+03 1.084803833007812500e+03 1.084801025390625000e+03 1.084798706054687500e+03 1.084796997070312500e+03 1.084795776367187500e+03 1.084795288085937500e+03 1.084794677734375000e+03 1.084789428710937500e+03 1.084778930664062500e+03 1.084763183593750000e+03 1.084742431640625000e+03 1.084716918945312500e+03 1.084686645507812500e+03 1.084651855468750000e+03 1.084612670898437500e+03 1.084569091796875000e+03 1.084521240234375000e+03 1.084469116210937500e+03 1.084412719726562500e+03 1.084352294921875000e+03 1.084287841796875000e+03 1.084219238281250000e+03 1.084146606445312500e+03 1.084069946289062500e+03 1.083990356445312500e+03
1.078421752929687500e+03 1.078397460937500000e+03 1.078373535156250000e+03 1.078349609375000000e+03 1.078325561523437500e+03 1.078301391601562500e+03 1.078277099609375000e+03 1.078253051757812500e+03 1.078229125976562500e+03 1.078205444335937500e+03 1.078184936523437500e+03 1.078168945312500000e+03 1.078157714843750000e+03 1.078151123046875000e+03 1.078149291992187500e+03 1.078152099609375000e+03 1.078159790039062500e+03 1.078172241210937500e+03 1.078189453125000000e+03 1.078211547851562500e+03 1.078238647460937500e+03 1.078270629882812500e+03 1.078307617187500000e+03 1.078349731445312500e+03 1.078396972656250000e+03 1.078449340820312500e+03 1.078507080078125000e+03 1.078570068359375000e+03 1.078638671875000000e+03 1.078712768554687500e+03 1.078792602539062500e+03 1.078878173828125000e+03 1.078969848632812500e+03 1.079067504882812500e+03 1.079171264648437500e+03 1.079281372070312500e+03 1.079397827148437500e+03 1.079520751953125000e+03 1.079650146484375000e+03 1.079786132812500000e+03 1.079928833007812500e+03 1.080078491210937500e+03 1.080234863281250000e+03 1.080398315429687500e+03 1.080568847656250000e+03 1.080744506835937500e+03 1.080920410156250000e+03 1.081096435546875000e+03 1.081272338867187500e+03 1.081448242187500000e+03 1.081624145507812500e+03 1.081800048828125000e+03 1.081976074218750000e+03 1.082151977539062500e+03 1.082327880859375000e+03 1.082504882812500000e+03 1.082683105468750000e+03 1.082862548828125000e+03 1.083043090820312500e+03 1.083224853515625000e+03 1.083407714843750000e+03 1.083591918945312500e+03 1.083777832031250000e+03 1.083965087890625000e+03 1.084145263671875000e+03 1.084312500000000000e+03 1.084450439453125000e+03 1.084562133789062500e+03 1.084647705078125000e+03 1.084706787109375000e+03 1.084750122070312500e+03 1.084782958984375000e+03 1.084808105468750000e+03 1.084827758789062500e+03 1.084843139648437500e+03 1.084855102539062500e+03 1.084864379882812500e+03 1.084871337890625000e+03 1.084876342773437500e+03 1.084879394531250000e+03 1.084880981445312500e+03 1.084880859375000000e+03 1.084879272460937500e+03 1.084876342773437500e+03 1.084872558593750000e+03 1.084868774414062500e+03 1.084864990234375000e+03 1.084861206054687500e+03 1.084857421875000000e+03 1.084853637695312500e+03 1.084849853515625000e+03 1.084846069335937500e+03 1.084842285156250000e+03 1.084838500976562500e+03 1.084834716796875000e+03 1.084831420898437500e+03 1.084828613281250000e+03 1.084826171875000000e+03 1.084824340820312500e+03 1.084823120117187500e+03 1.084822631835937500e+03 1.084822021484375000e+03 1.084816162109375000e+03 1.084804321289062500e+03 1.084786743164062500e+03 1.084763549804687500e+03 1.084734985351562500e+03 1.084701171875000000e+03 1.084662353515625000e+03 1.084618408203125000e+03 1.084569702148437500e+03 1.084516113281250000e+03 1.084457885742187500e+03 1.084394897460937500e+03 1.084327392578125000e+03 1.084255371093750000e+03 1.084178955078125000e+03 1.084100341796875000e+03 1.084019775390625000e+03
1.078451538085937500e+03 1.078426879882812500e+03 1.078402221679687500e+03 1.078377685546875000e+03 1.078353271484375000e+03 1.078329101562500000e+03 1.078305053710937500e+03 1.078281250000000000e+03 1.078257568359375000e+03 1.078234497070312500e+03 1.078215332031250000e+03 1.078200805664062500e+03 1.078191040039062500e+03 1.078185913085937500e+03 1.078185424804687500e+03 1.078189819335937500e+03 1.078198852539062500e+03 1.078212524414062500e+03 1.078231201171875000e+03 1.078254516601562500e+03 1.078282714843750000e+03 1.078315795898437500e+03 1.078353881835937500e+03 1.078396972656250000e+03 1.078444946289062500e+03 1.078498168945312500e+03 1.078556518554687500e+03 1.078620239257812500e+03 1.078689208984375000e+03 1.078763793945312500e+03 1.078843872070312500e+03 1.078929687500000000e+03 1.079021240234375000e+03 1.079118896484375000e+03 1.079222534179687500e+03 1.079332397460937500e+03 1.079448486328125000e+03 1.079570922851562500e+03 1.079699707031250000e+03 1.079835083007812500e+03 1.079976928710937500e+03 1.080125610351562500e+03 1.080281005859375000e+03 1.080443359375000000e+03 1.080612670898437500e+03 1.080787963867187500e+03 1.080963867187500000e+03 1.081139770507812500e+03 1.081315673828125000e+03 1.081491699218750000e+03 1.081667602539062500e+03 1.081843505859375000e+03 1.082019409179687500e+03 1.082195434570312500e+03 1.082371337890625000e+03 1.082547241210937500e+03 1.082723144531250000e+03 1.082899169921875000e+03 1.083075561523437500e+03 1.083252807617187500e+03 1.083431030273437500e+03 1.083610107421875000e+03 1.083790161132812500e+03 1.083971313476562500e+03 1.084154052734375000e+03 1.084338989257812500e+03 1.084516235351562500e+03 1.084662475585937500e+03 1.084765869140625000e+03 1.084825927734375000e+03 1.084861450195312500e+03 1.084884033203125000e+03 1.084899047851562500e+03 1.084909179687500000e+03 1.084915893554687500e+03 1.084920288085937500e+03 1.084922607421875000e+03 1.084923339843750000e+03 1.084922729492187500e+03 1.084920776367187500e+03 1.084917724609375000e+03 1.084914184570312500e+03 1.084910644531250000e+03 1.084906982421875000e+03 1.084903442382812500e+03 1.084899780273437500e+03 1.084895996093750000e+03 1.084892333984375000e+03 1.084888671875000000e+03 1.084885009765625000e+03 1.084881347656250000e+03 1.084877685546875000e+03 1.084874023437500000e+03 1.084870361328125000e+03 1.084866699218750000e+03 1.084863037109375000e+03 1.084859619140625000e+03 1.084856567382812500e+03 1.084854003906250000e+03 1.084852050781250000e+03 1.084850708007812500e+03 1.084850097656250000e+03 1.084849487304687500e+03 1.084843261718750000e+03 1.084830200195312500e+03 1.084810546875000000e+03 1.084784545898437500e+03 1.084752319335937500e+03 1.084714111328125000e+03 1.084670043945312500e+03 1.084620361328125000e+03 1.084565063476562500e+03 1.084504394531250000e+03 1.084438354492187500e+03 1.084367065429687500e+03 1.084291137695312500e+03 1.084213378906250000e+03 1.084133789062500000e+03 1.084052246093750000e+03
1.078478027343750000e+03 1.078453125000000000e+03 1.078428588867187500e+03 1.078404296875000000e+03 1.078380249023437500e+03 1.078356323242187500e+03 1.078332641601562500e+03 1.078309082031250000e+03 1.078285766601562500e+03 1.078263427734375000e+03 1.078245483398437500e+03 1.078232299804687500e+03 1.078223754882812500e+03 1.078219970703125000e+03 1.078220825195312500e+03 1.078226318359375000e+03 1.078236694335937500e+03 1.078251586914062500e+03 1.078271362304687500e+03 1.078295898437500000e+03 1.078325195312500000e+03 1.078359252929687500e+03 1.078398193359375000e+03 1.078442138671875000e+03 1.078490966796875000e+03 1.078544799804687500e+03 1.078603881835937500e+03 1.078668090820312500e+03 1.078737548828125000e+03 1.078812377929687500e+03 1.078892822265625000e+03 1.078978759765625000e+03 1.079070556640625000e+03 1.079168212890625000e+03 1.079271850585937500e+03 1.079381469726562500e+03 1.079497436523437500e+03 1.079619506835937500e+03 1.079747924804687500e+03 1.079882812500000000e+03 1.080024169921875000e+03 1.080172119140625000e+03 1.080326782226562500e+03 1.080488281250000000e+03 1.080656616210937500e+03 1.080831420898437500e+03 1.081007324218750000e+03 1.081183227539062500e+03 1.081359130859375000e+03 1.081535034179687500e+03 1.081711059570312500e+03 1.081886962890625000e+03 1.082062866210937500e+03 1.082238769531250000e+03 1.082414794921875000e+03 1.082590698242187500e+03 1.082766601562500000e+03 1.082942504882812500e+03 1.083118530273437500e+03 1.083294433593750000e+03 1.083470336914062500e+03 1.083646240234375000e+03 1.083822265625000000e+03 1.083998413085937500e+03 1.084175170898437500e+03 1.084352416992187500e+03 1.084530517578125000e+03 1.084710693359375000e+03 1.084880126953125000e+03 1.084949951171875000e+03 1.084965454101562500e+03 1.084969970703125000e+03 1.084968872070312500e+03 1.084964721679687500e+03 1.084959716796875000e+03 1.084954467773437500e+03 1.084949340820312500e+03 1.084944946289062500e+03 1.084941040039062500e+03 1.084937744140625000e+03 1.084934814453125000e+03 1.084932250976562500e+03 1.084929931640625000e+03 1.084927856445312500e+03 1.084925781250000000e+03 1.084923950195312500e+03 1.084921997070312500e+03 1.084919921875000000e+03 1.084917724609375000e+03 1.084915405273437500e+03 1.084912841796875000e+03 1.084909912109375000e+03 1.084906616210937500e+03 1.084902954101562500e+03 1.084899047851562500e+03 1.084895385742187500e+03 1.084891723632812500e+03 1.084888183593750000e+03 1.084885009765625000e+03 1.084882324218750000e+03 1.084880126953125000e+03 1.084878417968750000e+03 1.084877563476562500e+03 1.084877319335937500e+03 1.084870971679687500e+03 1.084856689453125000e+03 1.084834594726562500e+03 1.084805053710937500e+03 1.084768066406250000e+03 1.084724121093750000e+03 1.084673339843750000e+03 1.084615844726562500e+03 1.084552001953125000e+03 1.084481811523437500e+03 1.084406494140625000e+03 1.084329589843750000e+03 1.084250854492187500e+03 1.084170043945312500e+03 1.084086303710937500e+03
1.078503662109375000e+03 1.078479003906250000e+03 1.078454589843750000e+03 1.078430541992187500e+03 1.078406738281250000e+03 1.078383178710937500e+03 1.078359741210937500e+03 1.078336547851562500e+03 1.078313598632812500e+03 1.078292114257812500e+03 1.078275268554687500e+03 1.078263183593750000e+03 1.078255859375000000e+03 1.078253173828125000e+03 1.078255126953125000e+03 1.078261840820312500e+03 1.078273315429687500e+03 1.078289306640625000e+03 1.078310058593750000e+03 1.078335571289062500e+03 1.078365844726562500e+03 1.078400756835937500e+03 1.078440551757812500e+03 1.078485229492187500e+03 1.078534790039062500e+03 1.078589355468750000e+03 1.078648925781250000e+03 1.078713623046875000e+03 1.078783569335937500e+03 1.078858764648437500e+03 1.078939453125000000e+03 1.079025756835937500e+03 1.079117675781250000e+03 1.079215332031250000e+03 1.079319091796875000e+03 1.079428710937500000e+03 1.079544555664062500e+03 1.079666503906250000e+03 1.079794677734375000e+03 1.079929321289062500e+03 1.080070312500000000e+03 1.080217773437500000e+03 1.080371948242187500e+03 1.080532836914062500e+03 1.080700561523437500e+03 1.080874755859375000e+03 1.081050659179687500e+03 1.081226684570312500e+03 1.081402587890625000e+03 1.081578491210937500e+03 1.081754394531250000e+03 1.081930419921875000e+03 1.082106323242187500e+03 1.082282226562500000e+03 1.082458129882812500e+03 1.082634155273437500e+03 1.082810058593750000e+03 1.082985961914062500e+03 1.083161865234375000e+03 1.083337768554687500e+03 1.083513793945312500e+03 1.083689697265625000e+03 1.083865600585937500e+03 1.084041503906250000e+03 1.084217529296875000e+03 1.084393432617187500e+03 1.084569335937500000e+03 1.084741333007812500e+03 1.084875488281250000e+03 1.084932128906250000e+03 1.084946289062500000e+03 1.084945556640625000e+03 1.084942016601562500e+03 1.084938476562500000e+03 1.084935424804687500e+03 1.084932983398437500e+03 1.084931152343750000e+03 1.084930053710937500e+03 1.084929321289062500e+03 1.084929199218750000e+03 1.084929321289062500e+03 1.084929809570312500e+03 1.084930541992187500e+03 1.084931396484375000e+03 1.084932250976562500e+03 1.084933227539062500e+03 1.084934082031250000e+03 1.084934814453125000e+03 1.084935302734375000e+03 1.084935668945312500e+03 1.084935546875000000e+03 1.084935180664062500e+03 1.084934326171875000e+03 1.084932983398437500e+03 1.084931152343750000e+03 1.084928710937500000e+03 1.084925781250000000e+03 1.084922241210937500e+03 1.084918212890625000e+03 1.084914184570312500e+03 1.084911132812500000e+03 1.084908569335937500e+03 1.084906616210937500e+03 1.084905395507812500e+03 1.084905029296875000e+03 1.084899414062500000e+03 1.084883789062500000e+03 1.084858642578125000e+03 1.084824218750000000e+03 1.084780761718750000e+03 1.084728637695312500e+03 1.084668212890625000e+03 1.084599853515625000e+03 1.084525268554687500e+03 1.084449096679687500e+03 1.084371093750000000e+03 1.084290283203125000e+03 1.084206298828125000e+03 1.084118652343750000e+03
1.078528930664062500e+03 1.078504516601562500e+03 1.078480346679687500e+03 1.078456420898437500e+03 1.078432861328125000e+03 1.078409667968750000e+03 1.078386596679687500e+03 1.078363769531250000e+03 1.078341064453125000e+03 1.078320434570312500e+03 1.078304565429687500e+03 1.078293457031250000e+03 1.078287109375000000e+03 1.078285522460937500e+03 1.078288574218750000e+03 1.078296264648437500e+03 1.078308593750000000e+03 1.078325561523437500e+03 1.078347290039062500e+03 1.078373657226562500e+03 1.078404663085937500e+03 1.078440429687500000e+03 1.078480957031250000e+03 1.078526367187500000e+03 1.078576538085937500e+03 1.078631713867187500e+03 1.078691772460937500e+03 1.078756958007812500e+03 1.078827392578125000e+03 1.078902954101562500e+03 1.078983886718750000e+03 1.079070434570312500e+03 1.079162597656250000e+03 1.079260498046875000e+03 1.079364257812500000e+03 1.079474121093750000e+03 1.079589965820312500e+03 1.079711914062500000e+03 1.079840087890625000e+03 1.079974609375000000e+03 1.080115356445312500e+03 1.080262695312500000e+03 1.080416625976562500e+03 1.080577148437500000e+03 1.080744384765625000e+03 1.080918212890625000e+03 1.081094116210937500e+03 1.081270019531250000e+03 1.081446044921875000e+03 1.081621948242187500e+03 1.081797851562500000e+03 1.081973754882812500e+03 1.082149780273437500e+03 1.082325683593750000e+03 1.082501586914062500e+03 1.082677490234375000e+03 1.082853393554687500e+03 1.083029418945312500e+03 1.083205322265625000e+03 1.083381225585937500e+03 1.083557128906250000e+03 1.083733154296875000e+03 1.083909057617187500e+03 1.084084960937500000e+03 1.084254760742187500e+03 1.084406005859375000e+03 1.084539184570312500e+03 1.084653808593750000e+03 1.084744873046875000e+03 1.084792602539062500e+03 1.084816650390625000e+03 1.084838867187500000e+03 1.084858154296875000e+03 1.084870117187500000e+03 1.084878051757812500e+03 1.084884155273437500e+03 1.084889404296875000e+03 1.084894287109375000e+03 1.084898925781250000e+03 1.084903686523437500e+03 1.084908447265625000e+03 1.084913208007812500e+03 1.084917968750000000e+03 1.084922607421875000e+03 1.084927246093750000e+03 1.084931762695312500e+03 1.084936035156250000e+03 1.084940063476562500e+03 1.084943847656250000e+03 1.084947265625000000e+03 1.084950195312500000e+03 1.084952758789062500e+03 1.084954833984375000e+03 1.084956176757812500e+03 1.084957031250000000e+03 1.084957153320312500e+03 1.084956542968750000e+03 1.084955322265625000e+03 1.084953125000000000e+03 1.084950317382812500e+03 1.084946655273437500e+03 1.084942260742187500e+03 1.084937866210937500e+03 1.084934936523437500e+03 1.084933105468750000e+03 1.084932128906250000e+03 1.084928222656250000e+03 1.084911499023437500e+03 1.084881958007812500e+03 1.084839965820312500e+03 1.084786132812500000e+03 1.084721069335937500e+03 1.084647460937500000e+03 1.084571899414062500e+03 1.084494018554687500e+03 1.084412475585937500e+03 1.084326904296875000e+03 1.084240600585937500e+03 1.084154785156250000e+03
1.078554077148437500e+03 1.078529785156250000e+03 1.078505859375000000e+03 1.078482177734375000e+03 1.078458740234375000e+03 1.078435791015625000e+03 1.078413085937500000e+03 1.078390502929687500e+03 1.078368286132812500e+03 1.078348388671875000e+03 1.078333374023437500e+03 1.078323242187500000e+03 1.078317749023437500e+03 1.078317016601562500e+03 1.078320922851562500e+03 1.078329467773437500e+03 1.078342651367187500e+03 1.078360473632812500e+03 1.078382934570312500e+03 1.078410034179687500e+03 1.078441772460937500e+03 1.078478271484375000e+03 1.078519409179687500e+03 1.078565429687500000e+03 1.078616210937500000e+03 1.078671875000000000e+03 1.078732543945312500e+03 1.078798095703125000e+03 1.078868896484375000e+03 1.078944824218750000e+03 1.079026245117187500e+03 1.079113037109375000e+03 1.079205322265625000e+03 1.079303466796875000e+03 1.079407592773437500e+03 1.079517578125000000e+03 1.079633544921875000e+03 1.079755737304687500e+03 1.079884033203125000e+03 1.080018554687500000e+03 1.080159423828125000e+03 1.080306762695312500e+03 1.080460571289062500e+03 1.080620971679687500e+03 1.080787963867187500e+03 1.080961669921875000e+03 1.081137573242187500e+03 1.081313476562500000e+03 1.081489379882812500e+03 1.081665405273437500e+03 1.081841308593750000e+03 1.082017211914062500e+03 1.082193115234375000e+03 1.082369140625000000e+03 1.082545043945312500e+03 1.082720947265625000e+03 1.082896850585937500e+03 1.083072753906250000e+03 1.083248779296875000e+03 1.083424682617187500e+03 1.083600585937500000e+03 1.083773681640625000e+03 1.083933227539062500e+03 1.084079345703125000e+03 1.084213134765625000e+03 1.084334960937500000e+03 1.084444702148437500e+03 1.084540649414062500e+03 1.084618041992187500e+03 1.084665039062500000e+03 1.084693725585937500e+03 1.084720947265625000e+03 1.084746704101562500e+03 1.084771118164062500e+03 1.084793945312500000e+03 1.084812622070312500e+03 1.084828002929687500e+03 1.084841430664062500e+03 1.084853515625000000e+03 1.084864624023437500e+03 1.084875244140625000e+03 1.084885253906250000e+03 1.084894897460937500e+03 1.084904174804687500e+03 1.084913085937500000e+03 1.084921630859375000e+03 1.084929809570312500e+03 1.084937622070312500e+03 1.084945068359375000e+03 1.084952026367187500e+03 1.084958374023437500e+03 1.084964233398437500e+03 1.084969482421875000e+03 1.084974121093750000e+03 1.084977905273437500e+03 1.084981079101562500e+03 1.084983276367187500e+03 1.084984619140625000e+03 1.084985107421875000e+03 1.084984497070312500e+03 1.084982910156250000e+03 1.084980224609375000e+03 1.084976562500000000e+03 1.084971801757812500e+03 1.084966430664062500e+03 1.084961425781250000e+03 1.084959228515625000e+03 1.084957397460937500e+03 1.084939819335937500e+03 1.084902099609375000e+03 1.084845214843750000e+03 1.084773193359375000e+03 1.084697998046875000e+03 1.084618652343750000e+03 1.084534667968750000e+03 1.084450683593750000e+03 1.084367309570312500e+03 1.084284179687500000e+03 1.084200927734375000e+03
1.078578979492187500e+03 1.078554931640625000e+03 1.078531127929687500e+03 1.078507690429687500e+03 1.078484497070312500e+03 1.078461669921875000e+03 1.078439208984375000e+03 1.078416992187500000e+03 1.078395141601562500e+03 1.078375976562500000e+03 1.078361694335937500e+03 1.078352172851562500e+03 1.078347412109375000e+03 1.078347412109375000e+03 1.078352050781250000e+03 1.078361328125000000e+03 1.078375244140625000e+03 1.078393798828125000e+03 1.078416992187500000e+03 1.078444702148437500e+03 1.078477172851562500e+03 1.078514160156250000e+03 1.078556030273437500e+03 1.078602539062500000e+03 1.078653808593750000e+03 1.078709960937500000e+03 1.078770996093750000e+03 1.078837036132812500e+03 1.078908203125000000e+03 1.078984619140625000e+03 1.079066284179687500e+03 1.079153442382812500e+03 1.079246093750000000e+03 1.079344482421875000e+03 1.079448852539062500e+03 1.079559204101562500e+03 1.079675537109375000e+03 1.079797973632812500e+03 1.079926513671875000e+03 1.080061401367187500e+03 1.080202514648437500e+03 1.080349975585937500e+03 1.080504028320312500e+03 1.080664428710937500e+03 1.080831420898437500e+03 1.081005004882812500e+03 1.081181030273437500e+03 1.081356933593750000e+03 1.081532836914062500e+03 1.081708740234375000e+03 1.081884765625000000e+03 1.082060668945312500e+03 1.082236572265625000e+03 1.082412475585937500e+03 1.082588378906250000e+03 1.082764404296875000e+03 1.082940307617187500e+03 1.083116210937500000e+03 1.083291870117187500e+03 1.083460449218750000e+03 1.083616577148437500e+03 1.083761596679687500e+03 1.083896606445312500e+03 1.084022216796875000e+03 1.084138793945312500e+03 1.084246337890625000e+03 1.084343994140625000e+03 1.084429931640625000e+03 1.084500610351562500e+03 1.084548095703125000e+03 1.084581054687500000e+03 1.084612670898437500e+03 1.084642822265625000e+03 1.084671752929687500e+03 1.084699340820312500e+03 1.084725708007812500e+03 1.084750976562500000e+03 1.084774414062500000e+03 1.084795166015625000e+03 1.084813964843750000e+03 1.084831176757812500e+03 1.084847412109375000e+03 1.084862670898437500e+03 1.084877075195312500e+03 1.084890869140625000e+03 1.084904052734375000e+03 1.084916748046875000e+03 1.084928710937500000e+03 1.084940063476562500e+03 1.084950927734375000e+03 1.084961059570312500e+03 1.084970458984375000e+03 1.084979248046875000e+03 1.084987304687500000e+03 1.084994506835937500e+03 1.085000854492187500e+03 1.085006225585937500e+03 1.085010742187500000e+03 1.085014160156250000e+03 1.085016479492187500e+03 1.085017700195312500e+03 1.085017700195312500e+03 1.085016357421875000e+03 1.085013793945312500e+03 1.085009765625000000e+03 1.085004272460937500e+03 1.084997436523437500e+03 1.084989624023437500e+03 1.084984863281250000e+03 1.084967041015625000e+03 1.084902954101562500e+03 1.084824829101562500e+03 1.084743164062500000e+03 1.084662475585937500e+03 1.084582031250000000e+03 1.084501464843750000e+03 1.084420654296875000e+03 1.084339477539062500e+03 1.084257934570312500e+03
1.078603637695312500e+03 1.078579711914062500e+03 1.078556152343750000e+03 1.078532958984375000e+03 1.078510009765625000e+03 1.078487426757812500e+03 1.078465087890625000e+03 1.078443237304687500e+03 1.078421630859375000e+03 1.078403076171875000e+03 1.078389404296875000e+03 1.078380493164062500e+03 1.078376342773437500e+03 1.078376953125000000e+03 1.078382202148437500e+03 1.078392089843750000e+03 1.078406616210937500e+03 1.078425659179687500e+03 1.078449462890625000e+03 1.078477783203125000e+03 1.078510742187500000e+03 1.078548339843750000e+03 1.078590576171875000e+03 1.078637573242187500e+03 1.078689331054687500e+03 1.078745971679687500e+03 1.078807373046875000e+03 1.078873901367187500e+03 1.078945434570312500e+03 1.079022216796875000e+03 1.079104248046875000e+03 1.079191650390625000e+03 1.079284667968750000e+03 1.079383544921875000e+03 1.079488281250000000e+03 1.079598999023437500e+03 1.079715820312500000e+03 1.079838623046875000e+03 1.079967651367187500e+03 1.080103027343750000e+03 1.080244506835937500e+03 1.080392456054687500e+03 1.080546752929687500e+03 1.080707519531250000e+03 1.080874755859375000e+03 1.081048461914062500e+03 1.081224365234375000e+03 1.081400390625000000e+03 1.081576293945312500e+03 1.081752197265625000e+03 1.081928100585937500e+03 1.082104003906250000e+03 1.082280029296875000e+03 1.082455932617187500e+03 1.082631835937500000e+03 1.082807739257812500e+03 1.082982910156250000e+03 1.083149658203125000e+03 1.083305053710937500e+03 1.083450683593750000e+03 1.083587402343750000e+03 1.083716064453125000e+03 1.083837036132812500e+03 1.083950683593750000e+03 1.084057006835937500e+03 1.084155517578125000e+03 1.084245605468750000e+03 1.084325561523437500e+03 1.084392456054687500e+03 1.084440917968750000e+03 1.084477661132812500e+03 1.084513183593750000e+03 1.084547363281250000e+03 1.084580322265625000e+03 1.084612060546875000e+03 1.084642700195312500e+03 1.084672119140625000e+03 1.084700317382812500e+03 1.084727539062500000e+03 1.084753540039062500e+03 1.084778198242187500e+03 1.084801147460937500e+03 1.084822509765625000e+03 1.084842651367187500e+03 1.084861816406250000e+03 1.084879882812500000e+03 1.084897216796875000e+03 1.084913696289062500e+03 1.084929443359375000e+03 1.084944335937500000e+03 1.084958496093750000e+03 1.084971801757812500e+03 1.084984375000000000e+03 1.084996093750000000e+03 1.085006958007812500e+03 1.085016845703125000e+03 1.085025756835937500e+03 1.085033691406250000e+03 1.085040527343750000e+03 1.085046264648437500e+03 1.085050781250000000e+03 1.085054077148437500e+03 1.085056152343750000e+03 1.085056762695312500e+03 1.085055908203125000e+03 1.085053710937500000e+03 1.085049926757812500e+03 1.085044677734375000e+03 1.085038696289062500e+03 1.085030395507812500e+03 1.084971191406250000e+03 1.084887573242187500e+03 1.084807617187500000e+03 1.084728027343750000e+03 1.084648437500000000e+03 1.084568603515625000e+03 1.084488403320312500e+03 1.084407958984375000e+03 1.084327026367187500e+03
1.078628173828125000e+03 1.078604370117187500e+03 1.078581054687500000e+03 1.078557983398437500e+03 1.078535278320312500e+03 1.078512817382812500e+03 1.078490844726562500e+03 1.078469238281250000e+03 1.078447875976562500e+03 1.078429687500000000e+03 1.078416381835937500e+03 1.078407958984375000e+03 1.078404296875000000e+03 1.078405395507812500e+03 1.078411132812500000e+03 1.078421508789062500e+03 1.078436523437500000e+03 1.078456176757812500e+03 1.078480346679687500e+03 1.078509155273437500e+03 1.078542480468750000e+03 1.078580566406250000e+03 1.078623291015625000e+03 1.078670654296875000e+03 1.078722900390625000e+03 1.078779785156250000e+03 1.078841674804687500e+03 1.078908569335937500e+03 1.078980468750000000e+03 1.079057617187500000e+03 1.079140014648437500e+03 1.079227905273437500e+03 1.079321289062500000e+03 1.079420532226562500e+03 1.079525756835937500e+03 1.079637084960937500e+03 1.079754394531250000e+03 1.079877807617187500e+03 1.080007568359375000e+03 1.080143432617187500e+03 1.080285522460937500e+03 1.080434082031250000e+03 1.080588989257812500e+03 1.080750244140625000e+03 1.080917968750000000e+03 1.081091918945312500e+03 1.081267822265625000e+03 1.081443725585937500e+03 1.081619628906250000e+03 1.081795654296875000e+03 1.081971557617187500e+03 1.082147460937500000e+03 1.082323364257812500e+03 1.082499389648437500e+03 1.082674438476562500e+03 1.082841430664062500e+03 1.082998046875000000e+03 1.083145141601562500e+03 1.083284057617187500e+03 1.083415527343750000e+03 1.083540039062500000e+03 1.083658081054687500e+03 1.083769775390625000e+03 1.083875366210937500e+03 1.083974731445312500e+03 1.084067260742187500e+03 1.084152099609375000e+03 1.084228149414062500e+03 1.084292846679687500e+03 1.084342285156250000e+03 1.084382568359375000e+03 1.084421630859375000e+03 1.084459472656250000e+03 1.084496093750000000e+03 1.084531616210937500e+03 1.084566040039062500e+03 1.084599243164062500e+03 1.084631469726562500e+03 1.084662475585937500e+03 1.084692504882812500e+03 1.084721313476562500e+03 1.084749267578125000e+03 1.084776000976562500e+03 1.084801757812500000e+03 1.084826416015625000e+03 1.084849853515625000e+03 1.084872070312500000e+03 1.084893188476562500e+03 1.084913452148437500e+03 1.084932739257812500e+03 1.084951049804687500e+03 1.084968505859375000e+03 1.084984985351562500e+03 1.085000610351562500e+03 1.085015380859375000e+03 1.085029052734375000e+03 1.085041870117187500e+03 1.085053588867187500e+03 1.085064208984375000e+03 1.085073730468750000e+03 1.085082031250000000e+03 1.085089233398437500e+03 1.085095336914062500e+03 1.085100219726562500e+03 1.085104125976562500e+03 1.085106933593750000e+03 1.085108642578125000e+03 1.085109130859375000e+03 1.085108154296875000e+03 1.085092163085937500e+03 1.085051879882812500e+03 1.084991210937500000e+03 1.084909790039062500e+03 1.084821777343750000e+03 1.084737304687500000e+03 1.084654541015625000e+03 1.084572509765625000e+03 1.084490844726562500e+03 1.084409179687500000e+03
1.078652343750000000e+03 1.078628784179687500e+03 1.078605590820312500e+03 1.078582763671875000e+03 1.078560302734375000e+03 1.078538208007812500e+03 1.078516357421875000e+03 1.078494995117187500e+03 1.078473999023437500e+03 1.078455810546875000e+03 1.078442871093750000e+03 1.078434814453125000e+03 1.078431518554687500e+03 1.078432861328125000e+03 1.078438964843750000e+03 1.078449707031250000e+03 1.078465087890625000e+03 1.078485107421875000e+03 1.078509643554687500e+03 1.078538818359375000e+03 1.078572631835937500e+03 1.078610961914062500e+03 1.078654052734375000e+03 1.078701782226562500e+03 1.078754272460937500e+03 1.078811645507812500e+03 1.078873901367187500e+03 1.078941040039062500e+03 1.079013427734375000e+03 1.079090820312500000e+03 1.079173706054687500e+03 1.079261962890625000e+03 1.079355957031250000e+03 1.079455688476562500e+03 1.079561401367187500e+03 1.079673339843750000e+03 1.079791381835937500e+03 1.079915527343750000e+03 1.080046020507812500e+03 1.080182617187500000e+03 1.080325683593750000e+03 1.080474975585937500e+03 1.080630615234375000e+03 1.080792602539062500e+03 1.080960937500000000e+03 1.081135253906250000e+03 1.081311279296875000e+03 1.081487182617187500e+03 1.081663085937500000e+03 1.081838989257812500e+03 1.082015014648437500e+03 1.082190917968750000e+03 1.082366333007812500e+03 1.082535278320312500e+03 1.082693969726562500e+03 1.082843505859375000e+03 1.082985107421875000e+03 1.083119384765625000e+03 1.083247070312500000e+03 1.083368774414062500e+03 1.083484863281250000e+03 1.083595336914062500e+03 1.083700683593750000e+03 1.083800537109375000e+03 1.083894653320312500e+03 1.083982910156250000e+03 1.084064208984375000e+03 1.084137451171875000e+03 1.084200805664062500e+03 1.084251464843750000e+03 1.084294921875000000e+03 1.084337158203125000e+03 1.084378295898437500e+03 1.084418334960937500e+03 1.084457275390625000e+03 1.084495117187500000e+03 1.084531982421875000e+03 1.084567626953125000e+03 1.084602294921875000e+03 1.084635864257812500e+03 1.084668457031250000e+03 1.084700073242187500e+03 1.084730590820312500e+03 1.084760131835937500e+03 1.084788696289062500e+03 1.084816162109375000e+03 1.084842773437500000e+03 1.084868286132812500e+03 1.084892822265625000e+03 1.084916503906250000e+03 1.084939086914062500e+03 1.084960693359375000e+03 1.084981445312500000e+03 1.085001098632812500e+03 1.085019775390625000e+03 1.085037597656250000e+03 1.085054321289062500e+03 1.085070068359375000e+03 1.085084838867187500e+03 1.085098510742187500e+03 1.085111206054687500e+03 1.085122802734375000e+03 1.085133422851562500e+03 1.085142822265625000e+03 1.085151123046875000e+03 1.085158447265625000e+03 1.085164550781250000e+03 1.085169433593750000e+03 1.085167480468750000e+03 1.085148925781250000e+03 1.085115600585937500e+03 1.085069458007812500e+03 1.085010742187500000e+03 1.084938476562500000e+03 1.084852050781250000e+03 1.084762817382812500e+03 1.084676269531250000e+03 1.084591308593750000e+03 1.084507446289062500e+03
